ply
		format ascii 1.0
		element vertex 25154
		property float x
		property float y
		property float z
		property uchar red
		property uchar green
		property uchar blue
		end_header
102.948166 29.845982 -169.762100 126 127 109
96.670959 28.090336 -159.776093 104 129 107
93.693817 27.287754 -155.211060 81 110 91
88.425804 25.812740 -146.821274 70 87 48
85.900681 25.133457 -142.957565 55 72 39
85.702553 25.133457 -142.957565 50 66 37
83.311996 24.489010 -139.291977 59 74 47
79.064369 23.294424 -132.497253 52 68 51
77.002625 22.739796 -129.342560 35 44 41
78.697105 23.294424 -132.497253 34 41 38
82.539803 24.489010 -139.291977 38 44 42
82.346756 24.489010 -139.291977 38 46 49
82.153709 24.489010 -139.291977 40 49 56
79.911644 23.876785 -135.809677 45 52 56
72.475838 21.706169 -123.463348 49 56 59
64.926689 19.491253 -110.865051 49 59 66
63.477577 19.101429 -108.647743 44 54 64
63.327000 19.101429 -108.647743 49 63 80
63.176422 19.101429 -108.647743 58 77 102
63.025845 19.101429 -108.647743 75 94 116
62.875267 19.101429 -108.647743 100 110 122
61.494793 18.726891 -106.517403 97 101 107
57.938992 17.686508 -100.599762 68 70 78
53.813389 16.466749 -93.661850 31 33 39
52.773689 16.187651 -92.074364 16 18 20
50.098690 15.404378 -87.619148 14 17 17
47.670616 14.693406 -83.575188 16 20 20
46.135239 14.254797 -81.080406 19 23 22
44.050457 13.643877 -77.605530 30 36 30
43.323990 13.451710 -76.512497 41 49 41
43.217949 13.451710 -76.512497 51 60 53
43.111908 13.451710 -76.512497 69 76 71
43.620235 13.643877 -77.605530 83 89 87
44.143299 13.841615 -78.730255 86 94 97
44.034184 13.841615 -78.730255 76 87 97
43.925068 13.841615 -78.730255 74 86 97
43.815956 13.841615 -78.730255 78 89 99
43.706841 13.841615 -78.730255 84 98 111
43.597725 13.841615 -78.730255 84 102 116
43.488613 13.841615 -78.730255 82 101 117
42.759789 13.643877 -77.605530 88 107 124
42.051498 13.451710 -76.512497 88 105 124
41.362881 13.264880 -75.449821 84 102 120
40.143223 12.906370 -73.410637 84 102 119
38.987759 12.566729 -71.478783 82 99 118
37.891548 12.244505 -69.645988 72 83 98
37.316605 12.089512 -68.764397 66 80 93
37.221302 12.089512 -68.764397 75 94 113
37.125999 12.089512 -68.764397 78 98 122
36.567814 11.938393 -67.904839 78 99 126
36.473701 11.938393 -67.904839 77 97 122
36.379593 11.938393 -67.904839 76 94 117
36.285480 11.938393 -67.904839 74 91 112
36.191368 11.938393 -67.904839 70 87 107
36.097260 11.938393 -67.904839 66 81 101
36.458881 12.089512 -68.764397 60 72 88
36.363579 12.089512 -68.764397 52 59 70
36.733257 12.244505 -69.645988 40 45 53
36.636730 12.244505 -69.645988 27 30 38
36.540207 12.244505 -69.645988 17 18 23
36.443684 12.244505 -69.645988 14 14 16
36.347157 12.244505 -69.645988 12 13 14
36.250633 12.244505 -69.645988 10 11 12
36.154110 12.244505 -69.645988 10 10 12
36.525864 12.403524 -70.550484 10 12 12
36.428089 12.403524 -70.550484 11 12 12
36.330311 12.403524 -70.550484 10 11 11
37.198730 12.734285 -72.431831 11 12 12
39.188393 13.451710 -76.512497 10 11 12
40.215176 13.841615 -78.730255 11 11 12
41.929062 14.470778 -82.308899 11 11 12
41.814991 14.470778 -82.308899 12 13 13
43.686672 15.159863 -86.228371 12 13 13
45.745525 15.917857 -90.539787 11 13 12
46.393265 16.187651 -92.074364 12 14 13
45.494560 15.917857 -90.539787 11 13 13
44.625324 15.656908 -89.055527 11 13 13
43.784126 15.404378 -87.619148 12 14 14
43.662693 15.404378 -87.619148 12 13 13
43.541260 15.404378 -87.619148 12 13 14
44.131626 15.656908 -89.055527 11 12 13
44.008202 15.656908 -89.055527 11 12 13
42.491608 15.159863 -86.228371 10 11 12
41.710037 14.922991 -84.881050 11 13 13
41.592400 14.922991 -84.881050 13 14 15
40.836689 14.693406 -83.575188 12 14 14
40.103874 14.470778 -82.308899 13 14 13
39.392937 14.254797 -81.080406 12 15 14
39.280567 14.254797 -81.080406 20 29 27
39.168194 14.254797 -81.080406 41 62 66
39.055824 14.254797 -81.080406 55 80 96
38.943451 14.254797 -81.080406 54 74 95
38.831081 14.254797 -81.080406 42 55 70
38.718708 14.254797 -81.080406 27 33 40
38.606335 14.254797 -81.080406 15 17 20
38.493965 14.254797 -81.080406 12 14 14
38.381592 14.254797 -81.080406 12 15 14
37.706440 14.045168 -79.888046 12 16 14
37.595718 14.045168 -79.888046 13 17 14
37.485001 14.045168 -79.888046 14 17 14
37.374283 14.045168 -79.888046 13 17 14
37.263561 14.045168 -79.888046 14 18 15
36.614395 13.841615 -78.730255 14 17 14
35.476963 13.451710 -76.512497 19 23 18
34.401855 13.083170 -74.416267 65 61 45
16.491274 6.367143 -36.215916 74 53 48
15.808731 6.122252 -34.822994 76 62 55
15.560969 6.044756 -34.382198 119 108 96
15.319402 5.969196 -33.952419 152 114 103
15.272346 5.969196 -33.952419 140 85 81
15.225290 5.969196 -33.952419 93 53 52
14.990849 5.895503 -33.533257 48 32 32
14.852692 5.859334 -33.327530 41 28 27
14.627028 5.788311 -32.923561 46 27 25
14.493560 5.753442 -32.725224 46 32 27
14.108247 5.618067 -31.955219 44 33 29
13.981714 5.585213 -31.768347 41 34 29
13.937685 5.585213 -31.768347 57 51 41
13.812880 5.552741 -31.583647 65 54 44
13.689516 5.520644 -31.401083 72 58 46
13.645997 5.520644 -31.401083 76 59 46
13.602477 5.520644 -31.401083 79 68 52
13.558957 5.520644 -31.401083 83 70 55
13.594016 5.552741 -31.583647 72 56 47
13.550243 5.552741 -31.583647 57 42 38
13.428398 5.520644 -31.401083 64 52 42
13.307954 5.488916 -31.220617 127 143 112
13.264685 5.488916 -31.220617 227 240 222
13.221416 5.488916 -31.220617 236 235 243
13.178145 5.488916 -31.220617 182 189 204
13.210800 5.520644 -31.401083 197 224 222
13.167280 5.520644 -31.401083 248 253 254
13.277255 5.585213 -31.768347 254 254 255
68.061203 14.805351 -84.881050 33 40 44
67.943565 14.805351 -84.881050 32 39 44
67.825920 14.805351 -84.881050 30 38 41
67.708282 14.805351 -84.881050 29 37 40
67.590645 14.805351 -84.881050 27 35 40
67.473007 14.805351 -84.881050 31 39 47
67.355370 14.805351 -84.881050 36 46 55
67.237732 14.805351 -84.881050 37 48 59
68.185486 15.040358 -86.228371 38 51 64
68.065979 15.040358 -86.228371 39 53 67
69.042389 15.282944 -87.619148 41 56 68
68.920952 15.282944 -87.619148 40 55 65
68.799515 15.282944 -87.619148 30 42 47
68.678085 15.282944 -87.619148 20 26 28
68.556648 15.282944 -87.619148 15 18 19
68.435219 15.282944 -87.619148 12 15 15
68.313782 15.282944 -87.619148 12 15 15
68.192345 15.282944 -87.619148 12 14 16
68.070915 15.282944 -87.619148 11 13 15
67.949478 15.282944 -87.619148 12 13 15
67.828049 15.282944 -87.619148 27 25 27
67.706612 15.282944 -87.619148 40 45 41
67.585182 15.282944 -87.619148 34 41 37
67.463745 15.282944 -87.619148 32 37 38
67.342308 15.282944 -87.619148 37 45 49
67.220879 15.282944 -87.619148 35 46 49
66.034370 15.040358 -86.228371 30 37 40
65.914864 15.040358 -86.228371 44 50 57
65.795357 15.040358 -86.228371 65 76 84
65.675850 15.040358 -86.228371 70 82 90
65.556343 15.040358 -86.228371 72 84 91
65.436844 15.040358 -86.228371 73 85 90
64.296753 14.805351 -84.881050 72 84 89
64.179108 14.805351 -84.881050 72 83 88
65.078323 15.040358 -86.228371 71 81 86
64.958817 15.040358 -86.228371 67 75 81
64.839310 15.040358 -86.228371 68 76 81
65.763672 15.282944 -87.619148 69 77 80
65.642235 15.282944 -87.619148 69 76 80
65.520805 15.282944 -87.619148 69 75 79
65.399368 15.282944 -87.619148 69 76 78
65.277931 15.282944 -87.619148 70 76 78
65.156502 15.282944 -87.619148 73 77 77
63.002720 14.805351 -84.881050 70 73 69
62.885082 14.805351 -84.881050 41 44 39
62.767441 14.805351 -84.881050 22 21 23
62.649803 14.805351 -84.881050 22 20 22
62.532166 14.805351 -84.881050 23 21 23
62.414524 14.805351 -84.881050 43 40 42
62.296886 14.805351 -84.881050 55 57 58
62.179245 14.805351 -84.881050 37 42 42
62.061607 14.805351 -84.881050 24 26 28
62.927204 15.040358 -86.228371 26 27 32
62.807701 15.040358 -86.228371 30 34 40
62.688194 15.040358 -86.228371 37 41 49
62.568687 15.040358 -86.228371 48 52 60
61.473412 14.805351 -84.881050 52 53 64
61.355774 14.805351 -84.881050 60 58 68
61.238132 14.805351 -84.881050 65 64 76
61.120495 14.805351 -84.881050 60 61 73
61.002857 14.805351 -84.881050 58 67 82
61.851650 15.040358 -86.228371 67 79 95
62.727821 15.282944 -87.619148 79 91 103
68.098175 16.623552 -95.305038 78 91 104
70.437584 17.228046 -98.770676 71 89 108
72.953552 17.878160 -102.497871 67 89 112
74.211716 18.221972 -104.468987 60 77 94
75.519218 18.579266 -106.517403 55 69 85
75.371597 18.579266 -106.517403 53 67 84
76.728447 18.950850 -108.647743 53 70 92
76.577873 18.950850 -108.647743 57 77 102
79.611763 19.740469 -113.174736 60 85 115
79.454910 19.740469 -113.174736 59 85 115
79.298058 19.740469 -113.174736 65 91 119
79.141205 19.740469 -113.174736 66 95 124
78.984352 19.740469 -113.174736 73 102 131
75.674400 18.950850 -108.647743 76 107 135
72.619064 18.221972 -104.468987 51 74 95
69.790039 17.547083 -100.599762 40 51 64
64.847130 16.336939 -93.661850 46 54 63
60.542007 15.282944 -87.619148 38 46 55
58.532433 14.805351 -84.881050 29 38 46
56.644646 14.356705 -82.308899 36 46 59
54.867908 13.934448 -79.888046 49 64 81
53.963608 13.732500 -78.730255 49 65 82
53.854492 13.732500 -78.730255 41 57 75
52.231422 13.345669 -76.512497 30 44 61
50.012192 12.804628 -73.410637 22 32 44
49.244976 12.633900 -72.431831 22 29 36
49.144592 12.633900 -72.431831 21 26 30
49.044205 12.633900 -72.431831 21 24 29
49.605225 12.804628 -73.410637 19 23 30
49.503483 12.804628 -73.410637 22 27 36
49.401741 12.804628 -73.410637 39 40 47
51.383095 13.345669 -76.512497 39 40 45
51.277054 13.345669 -76.512497 31 35 41
51.171013 13.345669 -76.512497 27 32 37
52.545116 13.732500 -78.730255 25 27 31
53.207119 13.934448 -79.888046 25 25 28
54.705383 14.356705 -82.308899 31 32 34
56.297287 14.805351 -84.881050 28 33 31
57.071388 15.040358 -86.228371 29 37 28
58.819157 15.533484 -89.055527 38 48 37
188.444199 49.870659 -285.915131 48 58 50
188.047943 49.870659 -285.915131 39 43 43
187.651672 49.870659 -285.915131 32 37 42
187.255417 49.870659 -285.915131 31 37 43
197.240234 52.641251 -301.799286 32 37 41
196.821960 52.641251 -301.799286 33 35 38
207.956848 55.737793 -319.552185 38 38 41
207.513962 55.737793 -319.552185 33 33 36
207.071091 55.737793 -319.552185 44 48 51
206.628204 55.737793 -319.552185 68 81 90
206.185333 55.737793 -319.552185 80 93 103
218.601364 59.221405 -339.524200 87 95 101
218.130798 59.221405 -339.524200 91 96 98
217.660248 59.221405 -339.524200 99 101 101
217.189697 59.221405 -339.524200 106 107 105
216.719131 59.221405 -339.524200 108 111 113
203.528076 55.737793 -319.552185 117 121 118
203.085205 55.737793 -319.552185 114 113 108
191.384415 52.641251 -301.799286 89 94 93
190.966141 52.641251 -301.799286 76 69 69
180.519028 49.870659 -285.915131 53 44 44
171.116638 47.377125 -271.619354 24 23 24
170.740189 47.377125 -271.619354 20 20 24
154.876129 43.070114 -246.926697 25 25 29
135.989838 37.901699 -217.295486 24 26 31
125.637672 35.094166 -201.199524 22 23 28
125.358826 35.094166 -201.199524 40 45 47
116.453773 32.673878 -187.323700 130 129 119
116.194153 32.673878 -187.323700 144 135 120
115.934532 32.673878 -187.323700 61 66 70
111.819084 31.584749 -181.079575 33 45 58
104.595116 29.610703 -169.762100 23 29 37
104.359840 29.610703 -169.762100 23 29 37
104.124557 29.610703 -169.762100 23 30 40
103.889282 29.610703 -169.762100 22 29 38
103.654007 29.610703 -169.762100 24 31 37
103.418724 29.610703 -169.762100 50 63 62
100.056679 28.713409 -164.617798 76 87 85
99.828529 28.713409 -164.617798 129 135 124
93.908928 27.072643 -155.211060 111 132 115
88.629288 25.609257 -146.821274 74 100 84
86.098808 24.935329 -142.957565 64 80 44
85.900681 24.935329 -142.957565 62 79 44
83.505051 24.295961 -139.291977 60 77 57
83.311996 24.295961 -139.291977 84 108 108
83.118950 24.295961 -139.291977 91 126 151
85.108162 24.935329 -142.957565 79 106 137
87.204903 25.609257 -146.821274 69 86 103
87.001419 25.609257 -146.821274 71 87 103
91.757812 27.072643 -155.211060 70 90 113
88.999847 26.320625 -150.899643 68 90 116
84.117516 24.935329 -142.957565 64 85 111
75.927063 22.560535 -129.342560 63 82 104
63.628159 18.950850 -108.647743 63 79 101
62.232922 18.579266 -106.517403 56 68 87
62.085297 18.579266 -106.517403 60 76 100
63.176422 18.950850 -108.647743 66 87 120
63.025845 18.950850 -108.647743 72 93 122
62.875267 18.950850 -108.647743 84 100 120
59.174236 17.878160 -102.497871 100 107 117
53.943199 16.336939 -93.661850 96 99 106
52.901299 16.060043 -92.074364 53 61 72
51.043404 15.533484 -89.055527 26 30 37
47.786442 14.577577 -83.575188 22 27 30
46.247612 14.142426 -81.080406 36 47 52
44.158016 13.536322 -77.605530 53 69 78
41.113762 12.633900 -72.431831 74 88 95
38.450039 11.844281 -67.904839 93 109 116
36.969570 11.416175 -65.450447 121 138 149
36.878860 11.416175 -65.450447 148 163 176
43.620235 13.536322 -77.605530 162 176 186
44.143299 13.732500 -78.730255 147 168 188
44.034184 13.732500 -78.730255 118 144 173
43.925068 13.732500 -78.730255 107 134 164
43.815956 13.732500 -78.730255 104 130 160
44.349586 13.934448 -79.888046 101 129 164
44.238869 13.934448 -79.888046 98 126 159
43.488613 13.732500 -78.730255 92 119 150
43.379498 13.732500 -78.730255 89 116 149
42.652233 13.536322 -77.605530 84 112 145
40.796268 12.980034 -74.416267 80 107 140
39.086823 12.467665 -71.478783 77 103 136
37.988071 12.147981 -69.645988 74 98 127
37.411907 11.994209 -68.764397 65 82 103
36.850147 11.844281 -67.904839 60 76 95
36.302258 11.698055 -67.066513 65 85 109
35.767731 11.555396 -66.248627 64 85 111
35.675915 11.555396 -66.248627 62 83 110
35.155376 11.416175 -65.450447 61 81 107
35.930462 11.698055 -67.066513 60 79 104
36.285480 11.844281 -67.904839 59 77 102
36.191368 11.844281 -67.904839 58 76 98
36.097260 11.844281 -67.904839 58 74 95
36.458881 11.994209 -68.764397 57 72 89
36.363579 11.994209 -68.764397 54 64 78
36.268276 11.994209 -68.764397 47 55 68
36.172974 11.994209 -68.764397 40 47 58
35.626701 11.844281 -67.904839 31 36 44
35.532589 11.844281 -67.904839 29 30 34
35.438480 11.844281 -67.904839 22 19 22
35.344368 11.844281 -67.904839 12 12 13
35.250256 11.844281 -67.904839 10 11 11
35.156147 11.844281 -67.904839 11 12 13
35.062035 11.844281 -67.904839 11 11 12
34.967922 11.844281 -67.904839 10 11 12
36.232533 12.305747 -70.550484 11 12 13
38.114738 12.980034 -74.416267 11 12 13
40.215176 13.732500 -78.730255 11 11 12
43.925686 15.040358 -86.228371 11 13 12
44.512730 15.282944 -87.619148 11 13 13
45.871006 15.792375 -90.539787 11 12 12
48.153183 16.623552 -95.305038 11 13 12
48.021099 16.623552 -95.305038 11 12 13
45.494560 15.792375 -90.539787 11 13 13
44.625324 15.533484 -89.055527 11 12 13
44.501900 15.533484 -89.055527 11 12 12
43.662693 15.282944 -87.619148 11 11 13
44.255051 15.533484 -89.055527 10 11 13
44.131626 15.533484 -89.055527 11 12 14
44.008202 15.533484 -89.055527 10 11 12
43.176956 15.282944 -87.619148 10 11 12
41.710037 14.805351 -84.881050 11 13 13
41.592400 14.805351 -84.881050 12 13 14
40.836689 14.577577 -83.575188 11 13 13
39.505310 14.142426 -81.080406 12 13 14
39.392937 14.142426 -81.080406 13 15 14
39.280567 14.142426 -81.080406 17 24 21
39.168194 14.142426 -81.080406 33 50 50
39.647579 14.356705 -82.308899 47 67 79
39.533504 14.356705 -82.308899 42 54 70
39.419430 14.356705 -82.308899 28 30 38
38.718708 14.142426 -81.080406 25 22 23
38.606335 14.142426 -81.080406 18 16 17
38.493965 14.142426 -81.080406 11 13 13
38.381592 14.142426 -81.080406 11 14 12
38.269222 14.142426 -81.080406 11 15 12
38.156849 14.142426 -81.080406 12 16 14
38.044479 14.142426 -81.080406 13 17 14
37.932106 14.142426 -81.080406 14 19 15
37.263561 13.934448 -79.888046 14 17 15
37.152843 13.934448 -79.888046 12 15 14
35.983776 13.536322 -77.605530 24 28 21
35.876221 13.536322 -77.605530 89 78 55
15.856994 6.073990 -34.822994 69 54 45
15.708039 6.035303 -34.601192 101 88 73
15.463101 5.959387 -34.165958 130 112 100
15.319402 5.922141 -33.952419 119 94 88
15.272346 5.922141 -33.952419 101 71 66
15.225290 5.922141 -33.952419 82 53 49
15.083961 5.885357 -33.741535 53 38 37
14.944374 5.849028 -33.533257 44 31 30
14.806501 5.813144 -33.327530 47 31 28
14.581399 5.742682 -32.923561 56 40 33
14.108247 5.573780 -31.955219 58 40 35
13.981714 5.541184 -31.768347 50 38 33
13.937685 5.541184 -31.768347 54 48 40
13.893657 5.541184 -31.768347 59 51 42
13.769107 5.508968 -31.583647 58 50 43
13.725334 5.508968 -31.583647 63 57 43
13.681561 5.508968 -31.583647 68 65 47
13.637789 5.508968 -31.583647 69 62 46
13.594016 5.508968 -31.583647 60 49 42
13.629484 5.541184 -31.768347 46 39 35
13.506471 5.508968 -31.583647 53 52 39
13.462698 5.508968 -31.583647 123 145 112
13.341359 5.477124 -31.401083 228 241 223
13.297839 5.477124 -31.401083 239 236 242
13.254320 5.477124 -31.401083 182 186 202
13.287607 5.508968 -31.583647 188 207 214
13.243834 5.508968 -31.583647 230 223 232
13.355356 5.573780 -31.955219 217 205 225
68.061203 14.687713 -84.881050 31 39 42
67.943565 14.687713 -84.881050 30 38 41
67.825920 14.687713 -84.881050 29 36 39
67.708282 14.687713 -84.881050 27 34 38
67.590645 14.687713 -84.881050 26 33 39
67.473007 14.687713 -84.881050 34 41 52
67.355370 14.687713 -84.881050 42 53 65
67.237732 14.687713 -84.881050 42 55 68
67.120087 14.687713 -84.881050 43 57 70
68.065979 14.920851 -86.228371 43 59 72
67.946472 14.920851 -86.228371 43 59 72
68.920952 15.161510 -87.619148 42 57 67
68.799515 15.161510 -87.619148 32 46 52
68.678085 15.161510 -87.619148 20 27 30
68.556648 15.161510 -87.619148 14 18 19
68.435219 15.161510 -87.619148 11 14 14
68.313782 15.161510 -87.619148 12 14 15
68.192345 15.161510 -87.619148 11 13 15
68.070915 15.161510 -87.619148 11 13 14
67.949478 15.161510 -87.619148 11 12 14
67.828049 15.161510 -87.619148 16 17 19
67.706612 15.161510 -87.619148 25 29 30
67.585182 15.161510 -87.619148 24 30 28
67.463745 15.161510 -87.619148 22 26 26
67.342308 15.161510 -87.619148 21 25 25
66.153877 14.920851 -86.228371 21 27 27
66.034370 14.920851 -86.228371 21 26 26
65.914864 14.920851 -86.228371 36 38 43
65.795357 14.920851 -86.228371 59 66 74
65.675850 14.920851 -86.228371 67 78 87
65.556343 14.920851 -86.228371 70 82 90
64.414391 14.687713 -84.881050 72 84 91
64.296753 14.687713 -84.881050 72 84 90
64.179108 14.687713 -84.881050 73 84 88
64.061470 14.687713 -84.881050 73 82 86
64.958817 14.920851 -86.228371 72 80 85
64.839310 14.920851 -86.228371 72 80 83
64.719803 14.920851 -86.228371 72 80 83
65.642235 15.161510 -87.619148 70 78 82
65.520805 15.161510 -87.619148 71 77 81
65.399368 15.161510 -87.619148 72 78 81
65.277931 15.161510 -87.619148 73 79 80
65.156502 15.161510 -87.619148 75 80 80
63.002720 14.687713 -84.881050 73 75 70
62.885082 14.687713 -84.881050 41 43 38
62.767441 14.687713 -84.881050 23 23 24
62.649803 14.687713 -84.881050 24 22 23
62.532166 14.687713 -84.881050 23 20 22
62.414524 14.687713 -84.881050 45 41 52
62.296886 14.687713 -84.881050 90 91 115
62.179245 14.687713 -84.881050 91 105 121
62.061607 14.687713 -84.881050 54 67 81
61.943970 14.687713 -84.881050 48 58 74
62.807701 14.920851 -86.228371 46 58 73
62.688194 14.920851 -86.228371 48 53 68
62.568687 14.920851 -86.228371 59 50 61
61.473412 14.687713 -84.881050 61 47 56
61.355774 14.687713 -84.881050 59 45 55
61.238132 14.687713 -84.881050 58 43 54
60.180180 14.461748 -83.575188 51 40 52
61.002857 14.687713 -84.881050 39 40 54
60.885216 14.687713 -84.881050 32 40 53
61.732143 14.920851 -86.228371 31 39 52
65.789764 15.932434 -92.074364 30 38 50
67.966087 16.491467 -95.305038 28 36 48
70.300697 17.091156 -98.770676 26 34 45
70.163803 17.091156 -98.770676 24 30 40
71.323708 17.407660 -100.599762 24 29 39
71.184280 17.407660 -100.599762 28 36 53
71.044861 17.407660 -100.599762 41 56 79
70.905434 17.407660 -100.599762 54 76 104
73.487778 18.077185 -104.468987 61 87 111
76.276711 18.800272 -108.647743 59 84 106
77.679733 19.183950 -110.865051 65 95 123
77.526077 19.183950 -110.865051 70 106 138
75.824982 18.800272 -108.647743 80 117 151
72.763847 18.077185 -104.468987 74 111 136
67.431984 16.785957 -97.006920 32 46 53
61.781349 15.410059 -89.055527 16 18 22
57.863590 14.461748 -83.575188 15 16 19
56.023949 14.030054 -81.080406 14 15 17
53.515366 13.428765 -77.605530 12 13 16
52.655586 13.239628 -76.512497 12 13 17
51.109833 12.876899 -74.416267 18 20 24
50.317417 12.702887 -73.410637 27 32 41
50.215675 12.702887 -73.410637 27 34 38
49.445747 12.533515 -72.431831 17 20 22
48.696079 12.368600 -71.478783 11 12 15
47.965885 12.207969 -70.550484 13 14 18
47.868107 12.207969 -70.550484 12 14 18
47.770329 12.207969 -70.550484 10 11 15
48.299824 12.368600 -71.478783 10 10 14
48.843433 12.533515 -72.431831 16 17 21
48.743050 12.533515 -72.431831 35 39 47
49.299999 12.702887 -73.410637 30 35 41
49.198257 12.702887 -73.410637 20 22 28
50.460304 13.055744 -75.449821 19 22 25
51.064972 13.239628 -76.512497 18 20 23
52.436005 13.623385 -78.730255 20 21 23
53.888885 14.030054 -81.080406 22 24 26
56.297287 14.687713 -84.881050 28 34 32
57.071388 14.920851 -86.228371 39 49 39
58.819157 15.410059 -89.055527 60 71 56
111.888741 29.375425 -169.762100 97 104 89
162.405029 42.727890 -246.926697 114 114 104
162.062820 42.727890 -246.926697 107 108 102
161.720596 42.727890 -246.926697 97 98 93
161.378372 42.727890 -246.926697 70 70 67
168.704529 44.762554 -258.685120 70 61 56
186.066650 49.474400 -285.915131 86 73 63
185.670395 49.474400 -285.915131 75 67 61
185.274124 49.474400 -285.915131 70 69 68
184.877869 49.474400 -285.915131 94 98 102
194.730591 52.222977 -301.799286 95 107 115
194.312317 52.222977 -301.799286 91 105 116
193.894043 52.222977 -301.799286 92 105 115
193.475769 52.222977 -301.799286 94 107 115
193.057510 52.222977 -301.799286 99 110 118
192.639236 52.222977 -301.799286 105 117 126
192.220963 52.222977 -301.799286 110 120 128
191.802689 52.222977 -301.799286 121 124 127
191.384415 52.222977 -301.799286 127 130 127
180.915298 49.474400 -285.915131 75 76 74
171.493088 47.000679 -271.619354 36 34 36
171.116638 47.000679 -271.619354 24 24 27
155.218353 42.727890 -246.926697 23 23 27
131.049042 36.154369 -208.937973 38 37 42
121.419502 33.571915 -194.013840 37 39 44
116.973007 32.414261 -187.323700 26 27 31
116.713387 32.414261 -187.323700 41 43 44
108.940620 30.323019 -175.238297 123 119 110
108.697754 30.323019 -175.238297 125 119 112
105.065674 29.375425 -169.762100 55 63 71
104.830391 29.375425 -169.762100 27 38 49
101.425568 28.485260 -164.617798 18 24 31
101.197418 28.485260 -164.617798 21 29 38
100.969269 28.485260 -164.617798 22 31 40
100.741119 28.485260 -164.617798 23 31 41
100.512970 28.485260 -164.617798 23 29 40
100.284828 28.485260 -164.617798 30 38 46
100.056679 28.485260 -164.617798 39 47 57
94.124039 26.857531 -155.211060 54 64 70
86.495064 24.737200 -142.957565 76 95 91
72.872971 20.889191 -120.719719 74 92 82
69.611801 20.000290 -115.582710 58 69 40
68.004707 19.583616 -113.174736 60 74 48
67.847855 19.583616 -113.174736 65 81 78
67.691002 19.583616 -113.174736 87 113 130
85.306290 24.737200 -142.957565 100 140 183
87.408386 25.405773 -146.821274 91 129 180
92.188034 26.857531 -155.211060 70 91 124
97.547043 28.485260 -164.617798 58 74 97
94.456573 27.647459 -159.776093 50 66 91
91.542702 26.857531 -155.211060 42 55 74
84.117516 24.737200 -142.957565 36 47 63
79.723419 23.500340 -135.809677 32 42 56
61.180920 18.077185 -104.468987 32 38 50
52.030804 15.410059 -89.055527 33 34 43
51.070164 15.161510 -87.619148 32 33 43
50.948727 15.161510 -87.619148 30 32 44
50.827293 15.161510 -87.619148 28 33 43
51.537106 15.410059 -89.055527 28 34 44
51.413681 15.410059 -89.055527 33 37 45
50.462994 15.161510 -87.619148 33 38 45
48.768387 14.687713 -84.881050 29 36 44
45.788937 13.823730 -79.888046 33 39 48
39.822037 12.051456 -69.645988 53 66 76
38.254196 11.605106 -67.066513 80 99 112
36.365425 11.058984 -63.910439 92 117 138
33.156258 10.107673 -58.412766 97 124 149
31.387789 9.591975 -55.432526 90 116 147
28.947870 8.868052 -51.248936 88 110 138
28.342087 8.703830 -50.299881 85 105 129
28.272375 8.703830 -50.299881 90 111 133
42.303993 13.055744 -75.449821 96 122 152
43.405125 13.428765 -77.605530 97 121 154
43.297569 13.428765 -77.605530 85 110 144
43.190014 13.428765 -77.605530 75 99 131
44.349586 13.823730 -79.888046 69 90 121
44.238869 13.823730 -79.888046 62 83 111
43.488613 13.623385 -78.730255 57 75 99
43.379498 13.623385 -78.730255 51 68 90
42.652233 13.428765 -77.605530 46 61 82
40.244965 12.702887 -73.410637 43 56 75
39.086823 12.368600 -71.478783 40 51 68
38.481426 12.207969 -70.550484 37 47 61
37.411907 11.898907 -68.764397 34 41 54
36.850147 11.750170 -67.904839 32 38 49
36.302258 11.605106 -67.066513 33 38 49
35.767731 11.463580 -66.248627 31 37 46
35.246086 11.325465 -65.450447 31 37 46
35.155376 11.325465 -65.450447 30 35 45
35.492287 11.463580 -66.248627 28 33 43
36.285480 11.750170 -67.904839 27 33 42
36.191368 11.750170 -67.904839 27 33 42
36.554184 11.898907 -68.764397 27 33 42
36.458881 11.898907 -68.764397 27 33 41
36.363579 11.898907 -68.764397 26 31 39
36.268276 11.898907 -68.764397 24 29 38
36.172974 11.898907 -68.764397 24 28 35
35.626701 11.750170 -67.904839 26 30 36
35.532589 11.750170 -67.904839 53 42 53
35.438480 11.750170 -67.904839 71 37 43
35.344368 11.750170 -67.904839 33 21 23
34.815067 11.605106 -67.066513 13 13 14
34.722118 11.605106 -67.066513 11 12 14
34.206863 11.463580 -66.248627 11 11 13
34.536221 11.605106 -67.066513 10 11 13
35.315250 11.898907 -68.764397 10 11 13
49.147507 16.785957 -97.006920 12 13 14
48.153183 16.491467 -95.305038 11 12 13
48.021099 16.491467 -95.305038 11 13 13
45.494560 15.666893 -90.539787 12 15 14
43.905560 15.161510 -87.619148 11 13 14
43.784126 15.161510 -87.619148 11 12 13
42.969635 14.920851 -86.228371 11 13 14
42.850128 14.920851 -86.228371 12 15 16
43.419827 15.161510 -87.619148 12 14 15
43.298393 15.161510 -87.619148 12 13 14
41.827679 14.687713 -84.881050 12 16 16
41.710037 14.687713 -84.881050 14 22 20
40.952515 14.461748 -83.575188 13 16 16
39.617683 14.030054 -81.080406 10 12 12
38.924351 13.823730 -79.888046 11 13 13
38.813629 13.823730 -79.888046 13 15 15
38.702911 13.823730 -79.888046 16 21 19
38.592194 13.823730 -79.888046 25 35 34
39.055824 14.030054 -81.080406 32 41 45
38.943451 14.030054 -81.080406 29 35 40
39.419430 14.242630 -82.308899 22 23 27
38.718708 14.030054 -81.080406 24 23 24
38.606335 14.030054 -81.080406 19 19 21
38.493965 14.030054 -81.080406 12 15 16
38.381592 14.030054 -81.080406 11 15 14
38.269222 14.030054 -81.080406 11 16 14
38.156849 14.030054 -81.080406 11 16 14
38.044479 14.030054 -81.080406 13 18 14
37.932106 14.030054 -81.080406 13 17 15
37.263561 13.823730 -79.888046 12 15 13
37.152843 13.823730 -79.888046 12 15 13
36.505280 13.623385 -78.730255 16 19 16
35.876221 13.428765 -77.605530 36 36 27
34.775093 13.055744 -75.449821 60 51 42
32.548565 12.368600 -71.478783 50 39 33
15.708039 5.987348 -34.601192 85 75 57
15.660084 5.987348 -34.601192 114 93 80
15.415751 5.912035 -34.165958 87 69 63
15.272346 5.875085 -33.952419 82 63 54
15.225290 5.875085 -33.952419 82 59 50
15.178235 5.875085 -33.952419 66 48 43
15.037197 5.838594 -33.741535 53 40 35
14.897900 5.802553 -33.533257 54 43 35
14.670310 5.731790 -33.124313 68 55 42
14.276202 5.595319 -32.335640 71 51 42
14.063959 5.529492 -31.955219 54 37 34
14.019671 5.529492 -31.955219 46 35 31
13.975384 5.529492 -31.955219 52 41 34
13.849627 5.497156 -31.768347 54 45 38
13.725334 5.465195 -31.583647 60 60 42
13.681561 5.465195 -31.583647 63 61 43
13.717542 5.497156 -31.768347 60 53 40
13.673513 5.497156 -31.768347 54 48 40
13.629484 5.497156 -31.768347 52 53 39
13.585456 5.497156 -31.768347 64 72 48
13.541427 5.497156 -31.768347 129 157 117
13.418925 5.465195 -31.583647 229 242 225
13.375153 5.465195 -31.583647 235 233 240
13.331380 5.465195 -31.583647 171 171 192
13.365313 5.497156 -31.768347 140 140 162
13.399644 5.529492 -31.955219 130 105 125
13.355356 5.529492 -31.955219 97 80 99
69.141541 14.801345 -86.228371 31 38 41
67.943565 14.570073 -84.881050 29 36 39
67.825920 14.570073 -84.881050 27 33 37
67.708282 14.570073 -84.881050 25 32 37
67.590645 14.570073 -84.881050 25 32 38
67.473007 14.570073 -84.881050 34 40 51
67.355370 14.570073 -84.881050 42 53 65
67.237732 14.570073 -84.881050 42 55 67
67.120087 14.570073 -84.881050 42 55 68
68.065979 14.801345 -86.228371 42 56 68
67.946472 14.801345 -86.228371 43 57 70
67.826965 14.801345 -86.228371 41 56 68
67.707458 14.801345 -86.228371 31 45 51
67.587952 14.801345 -86.228371 18 25 26
68.556648 15.040075 -87.619148 14 18 19
68.435219 15.040075 -87.619148 12 15 15
68.313782 15.040075 -87.619148 12 14 15
68.192345 15.040075 -87.619148 11 14 14
68.070915 15.040075 -87.619148 11 13 14
67.949478 15.040075 -87.619148 12 13 14
67.828049 15.040075 -87.619148 14 16 16
67.706612 15.040075 -87.619148 19 21 23
67.585182 15.040075 -87.619148 30 33 33
67.463745 15.040075 -87.619148 34 37 35
66.273384 14.801345 -86.228371 21 23 23
66.153877 14.801345 -86.228371 18 22 23
66.034370 14.801345 -86.228371 16 20 20
65.914864 14.801345 -86.228371 26 26 30
65.795357 14.801345 -86.228371 48 52 57
65.675850 14.801345 -86.228371 61 70 77
64.532028 14.570073 -84.881050 67 77 86
64.414391 14.570073 -84.881050 70 81 89
64.296753 14.570073 -84.881050 71 83 90
64.179108 14.570073 -84.881050 72 83 88
64.061470 14.570073 -84.881050 72 81 86
64.958817 14.801345 -86.228371 71 80 85
64.839310 14.801345 -86.228371 73 81 84
64.719803 14.801345 -86.228371 73 81 84
65.642235 15.040075 -87.619148 72 80 83
65.520805 15.040075 -87.619148 72 79 82
65.399368 15.040075 -87.619148 73 79 82
65.277931 15.040075 -87.619148 75 80 82
65.156502 15.040075 -87.619148 78 82 82
63.002720 14.570073 -84.881050 82 82 76
62.885082 14.570073 -84.881050 47 48 43
62.767441 14.570073 -84.881050 28 27 27
62.649803 14.570073 -84.881050 24 23 23
61.570129 14.345919 -83.575188 21 19 22
61.454300 14.345919 -83.575188 42 41 58
62.296886 14.570073 -84.881050 115 120 153
62.179245 14.570073 -84.881050 123 145 172
62.061607 14.570073 -84.881050 69 95 120
61.943970 14.570073 -84.881050 55 74 91
61.826328 14.570073 -84.881050 46 59 70
62.688194 14.801345 -86.228371 40 48 55
62.568687 14.801345 -86.228371 41 39 44
62.449181 14.801345 -86.228371 36 33 36
61.355774 14.570073 -84.881050 35 34 41
60.296009 14.345919 -83.575188 33 36 46
60.180180 14.345919 -83.575188 30 35 45
60.064350 14.345919 -83.575188 27 33 44
60.885216 14.570073 -84.881050 25 32 43
60.767578 14.570073 -84.881050 28 37 48
63.632721 15.286634 -89.055527 31 44 54
65.662155 15.804826 -92.074364 27 39 47
65.534546 15.804826 -92.074364 22 30 37
65.406937 15.804826 -92.074364 16 21 28
65.279327 15.804826 -92.074364 13 16 23
65.151718 15.804826 -92.074364 18 22 35
66.145210 16.077322 -93.661850 31 40 58
66.015404 16.077322 -93.661850 49 64 85
70.766014 17.268234 -100.599762 53 75 91
74.781090 18.284014 -106.517403 41 56 66
74.633469 18.284014 -106.517403 51 70 86
74.485840 18.284014 -106.517403 64 94 114
71.532997 17.594051 -102.497871 60 87 104
67.566429 16.651512 -97.006920 53 78 89
61.904774 15.286634 -89.055527 27 37 39
57.100945 14.128556 -82.308899 15 16 19
53.730476 13.321210 -77.605530 15 15 19
50.048061 12.433129 -72.431831 23 27 32
48.650333 12.110191 -70.550484 17 20 23
47.930084 11.954932 -69.645988 11 11 14
47.833561 11.954932 -69.645988 15 14 19
47.737038 11.954932 -69.645988 22 24 32
47.640511 11.954932 -69.645988 21 26 31
47.543987 11.954932 -69.645988 15 17 19
47.447464 11.954932 -69.645988 13 13 16
46.751560 11.803604 -68.764397 27 31 40
47.254414 11.954932 -69.645988 24 30 37
47.157890 11.954932 -69.645988 12 13 18
47.061367 11.954932 -69.645988 15 17 23
47.574776 12.110191 -70.550484 18 20 24
48.101692 12.269535 -71.478783 28 32 38
48.642666 12.433129 -72.431831 21 25 30
48.542278 12.433129 -72.431831 14 16 20
49.096516 12.601145 -73.410637 13 14 16
50.355740 12.951177 -75.449821 12 12 15
52.436005 13.514271 -78.730255 14 15 17
53.888885 13.917682 -81.080406 19 19 23
56.297287 14.570073 -84.881050 36 40 46
56.179649 14.570073 -84.881050 62 64 68
58.819157 15.286634 -89.055527 104 104 101
60.685417 15.804826 -92.074364 144 143 136
111.653465 29.140146 -169.762100 155 155 147
118.846062 31.082823 -181.079575 141 142 137
122.684586 32.154644 -187.323700 120 122 118
122.424973 32.154644 -187.323700 103 106 106
122.165352 32.154644 -187.323700 104 105 105
135.971786 35.864796 -208.937973 111 110 107
167.987488 44.404034 -258.685120 107 110 111
167.628983 44.404034 -258.685120 101 108 111
175.633972 46.624233 -271.619354 100 107 111
175.257538 46.624233 -271.619354 94 103 109
174.881088 46.624233 -271.619354 92 103 112
174.504639 46.624233 -271.619354 95 106 115
174.128204 46.624233 -271.619354 98 108 115
173.751755 46.624233 -271.619354 103 111 116
173.375305 46.624233 -271.619354 107 115 122
172.998856 46.624233 -271.619354 106 115 123
172.622421 46.624233 -271.619354 108 116 122
172.245972 46.624233 -271.619354 132 136 130
171.869522 46.624233 -271.619354 95 98 91
163.326752 44.404034 -258.685120 43 45 47
148.797073 40.542812 -236.190750 33 33 33
126.474220 34.536469 -201.199524 28 27 27
117.492241 32.154644 -187.323700 35 32 32
109.669228 30.080151 -175.238297 35 34 35
109.426361 30.080151 -175.238297 29 29 31
105.771507 29.140146 -169.762100 33 32 32
105.536232 29.140146 -169.762100 55 55 55
105.300949 29.140146 -169.762100 52 54 57
101.881866 28.257113 -164.617798 41 46 54
98.663902 27.426020 -159.776093 35 43 55
95.629822 26.642420 -155.211060 35 49 65
95.414711 26.642420 -155.211060 32 47 65
95.199600 26.642420 -155.211060 29 41 58
94.984489 26.642420 -155.211060 31 41 56
92.136894 25.902353 -150.899643 36 47 61
91.927757 25.902353 -150.899643 42 54 68
89.239738 25.202290 -146.821274 43 55 72
76.612587 21.685690 -126.334587 40 43 52
71.452446 20.271406 -118.095375 74 84 81
68.318405 19.426765 -113.174736 87 98 88
62.918358 17.932398 -104.468987 51 60 41
58.289745 16.651512 -97.006920 47 58 46
55.198254 15.804826 -92.074364 55 65 63
54.152802 15.541411 -90.539787 60 75 78
54.027317 15.541411 -90.539787 74 102 121
82.925903 23.909864 -139.291977 70 96 132
97.775192 28.257113 -164.617798 56 62 86
97.547043 28.257113 -164.617798 40 45 59
97.318893 28.257113 -164.617798 32 41 52
30.226364 8.797026 -51.248936 29 39 49
29.058779 8.477134 -49.385338 29 38 48
50.618042 14.801345 -86.228371 28 38 46
50.498539 14.801345 -86.228371 27 35 44
50.379032 14.801345 -86.228371 26 33 42
50.259525 14.801345 -86.228371 24 30 39
50.948727 15.040075 -87.619148 22 27 36
50.827293 15.040075 -87.619148 21 26 36
51.537106 15.286634 -89.055527 22 28 37
50.584427 15.040075 -87.619148 24 30 39
48.886024 14.570073 -84.881050 24 30 38
48.768387 14.570073 -84.881050 28 34 40
45.788937 13.713010 -79.888046 41 49 54
39.822037 11.954932 -69.645988 53 62 71
36.453999 10.970408 -63.910439 59 71 80
32.883629 9.920050 -57.791355 59 72 82
31.146790 9.419038 -54.872601 65 79 90
29.018898 8.797026 -51.248936 60 75 89
28.411798 8.634117 -50.299881 58 74 89
27.826777 8.477134 -49.385338 48 59 73
27.262648 8.325756 -48.503460 43 53 65
27.943924 8.554906 -49.838417 59 69 86
42.793785 13.133587 -76.512497 73 70 89
43.297569 13.321210 -77.605530 55 57 74
43.190014 13.321210 -77.605530 39 47 62
45.011524 13.917682 -81.080406 34 41 53
44.899151 13.917682 -81.080406 31 37 49
44.128151 13.713010 -79.888046 28 35 45
43.379498 13.514271 -78.730255 27 34 41
42.652233 13.321210 -77.605530 26 33 40
40.244965 12.601145 -73.410637 26 33 40
39.086823 12.269535 -71.478783 26 32 39
38.987759 12.269535 -71.478783 24 29 36
37.891548 11.954932 -69.645988 25 29 35
37.316605 11.803604 -68.764397 27 30 37
36.756039 11.656058 -67.904839 26 29 36
35.767731 11.371764 -66.248627 36 45 53
35.675915 11.371764 -66.248627 59 75 82
35.584103 11.371764 -66.248627 56 66 76
36.379593 11.656058 -67.904839 28 32 42
38.195244 12.269535 -71.478783 23 27 35
38.604126 12.433129 -72.431831 25 31 38
38.503742 12.433129 -72.431831 28 36 42
37.898048 12.269535 -71.478783 28 36 43
37.308090 12.110191 -70.550484 26 32 39
37.210312 12.110191 -70.550484 25 31 38
37.112534 12.110191 -70.550484 23 27 34
37.014755 12.110191 -70.550484 22 24 30
36.443684 11.954932 -69.645988 49 33 38
35.887066 11.803604 -68.764397 120 53 51
35.344368 11.656058 -67.904839 92 42 42
34.815067 11.512156 -67.066513 23 18 19
34.298679 11.371764 -66.248627 12 13 14
34.206863 11.371764 -66.248627 12 14 14
34.115047 11.371764 -66.248627 12 14 14
48.021099 16.359381 -95.305038 11 13 14
44.748749 15.286634 -89.055527 11 15 14
43.208649 14.801345 -86.228371 12 15 14
42.415874 14.570073 -84.881050 12 14 14
41.647491 14.345919 -83.575188 12 15 15
41.531662 14.345919 -83.575188 13 16 16
42.062958 14.570073 -84.881050 13 15 15
41.945316 14.570073 -84.881050 13 16 15
41.184174 14.345919 -83.575188 13 21 19
39.842426 13.917682 -81.080406 15 29 28
38.578457 13.514271 -78.730255 13 18 18
37.919781 13.321210 -77.605530 11 14 13
37.279659 13.133587 -76.512497 12 13 13
37.173618 13.133587 -76.512497 12 15 15
37.597115 13.321210 -77.605530 14 18 17
38.032887 13.514271 -78.730255 19 24 22
38.481472 13.713010 -79.888046 23 28 26
38.943451 13.917682 -81.080406 24 29 28
38.831081 13.917682 -81.080406 23 28 29
38.718708 13.917682 -81.080406 34 45 49
38.606335 13.917682 -81.080406 32 35 44
38.493965 13.917682 -81.080406 16 18 22
38.381592 13.917682 -81.080406 11 15 15
38.269222 13.917682 -81.080406 11 15 15
37.595718 13.713010 -79.888046 11 16 15
38.044479 13.917682 -81.080406 14 19 16
37.932106 13.917682 -81.080406 14 18 16
37.819736 13.917682 -81.080406 12 15 14
37.152843 13.713010 -79.888046 12 15 14
36.505280 13.514271 -78.730255 13 16 14
34.879662 12.951177 -75.449821 18 23 17
33.835224 12.601145 -73.410637 30 30 23
32.845760 12.269535 -71.478783 35 32 27
32.321411 12.110191 -70.550484 46 42 34
32.223637 12.110191 -70.550484 54 47 38
32.548565 12.269535 -71.478783 64 62 41
34.734676 13.133587 -76.512497 88 82 54
35.123333 13.321210 -77.605530 77 66 51
36.045650 13.713010 -79.888046 58 48 38
15.368399 5.864684 -34.165958 66 56 42
15.225290 5.828029 -33.952419 70 53 44
15.178235 5.828029 -33.952419 52 37 33
15.131179 5.828029 -33.952419 46 36 29
14.990434 5.791831 -33.741535 58 47 37
14.851425 5.756078 -33.533257 68 52 40
14.361689 5.583741 -32.529266 55 36 32
14.231387 5.550504 -32.335640 37 24 24
14.186572 5.550504 -32.335640 36 26 22
14.226439 5.583741 -32.529266 48 35 28
14.013529 5.517661 -32.144302 57 46 36
13.968979 5.517661 -32.144302 64 61 44
13.761571 5.453127 -31.768347 65 63 44
13.717542 5.453127 -31.768347 62 57 42
13.753945 5.485204 -31.955219 58 53 43
13.709658 5.485204 -31.955219 55 53 41
13.665370 5.485204 -31.955219 62 65 46
13.701681 5.517661 -32.144302 125 154 117
13.657131 5.517661 -32.144302 227 243 225
13.612581 5.517661 -32.144302 232 231 239
13.488219 5.485204 -31.955219 163 161 184
13.443932 5.485204 -31.955219 105 98 118
13.399644 5.485204 -31.955219 64 47 63
13.355356 5.485204 -31.955219 46 33 39
69.141541 14.681838 -86.228371 29 37 40
67.943565 14.452435 -84.881050 27 34 38
67.825920 14.452435 -84.881050 25 32 36
67.708282 14.452435 -84.881050 24 31 36
67.590645 14.452435 -84.881050 24 31 37
67.473007 14.452435 -84.881050 32 39 50
67.355370 14.452435 -84.881050 40 53 64
67.237732 14.452435 -84.881050 41 53 65
67.120087 14.452435 -84.881050 40 52 64
68.065979 14.681838 -86.228371 40 52 64
67.946472 14.681838 -86.228371 41 53 66
67.826965 14.681838 -86.228371 39 54 65
67.707458 14.681838 -86.228371 30 44 49
67.587952 14.681838 -86.228371 18 24 25
67.468452 14.681838 -86.228371 15 18 20
68.435219 14.918642 -87.619148 13 16 18
68.313782 14.918642 -87.619148 12 15 16
68.192345 14.918642 -87.619148 11 14 15
68.070915 14.918642 -87.619148 11 14 15
67.949478 14.918642 -87.619148 22 21 24
67.828049 14.918642 -87.619148 46 47 43
67.706612 14.918642 -87.619148 40 49 44
67.585182 14.918642 -87.619148 39 47 45
67.463745 14.918642 -87.619148 30 34 33
66.273384 14.681838 -86.228371 23 25 24
66.153877 14.681838 -86.228371 23 26 24
66.034370 14.681838 -86.228371 18 21 20
65.914864 14.681838 -86.228371 19 20 22
64.767303 14.452435 -84.881050 36 38 42
64.649666 14.452435 -84.881050 52 59 65
64.532028 14.452435 -84.881050 62 71 78
64.414391 14.452435 -84.881050 67 77 84
64.296753 14.452435 -84.881050 70 82 88
64.179108 14.452435 -84.881050 72 83 88
64.061470 14.452435 -84.881050 73 82 87
64.958817 14.681838 -86.228371 73 82 87
64.839310 14.681838 -86.228371 74 82 86
64.719803 14.681838 -86.228371 74 82 85
65.642235 14.918642 -87.619148 74 80 83
65.520805 14.918642 -87.619148 73 79 82
65.399368 14.918642 -87.619148 74 80 82
65.277931 14.918642 -87.619148 77 81 82
65.156502 14.918642 -87.619148 79 82 82
63.002720 14.452435 -84.881050 84 81 76
62.885082 14.452435 -84.881050 53 53 48
62.767441 14.452435 -84.881050 31 32 30
61.685959 14.230089 -83.575188 23 22 23
61.570129 14.230089 -83.575188 21 20 24
61.454300 14.230089 -83.575188 45 50 70
61.338470 14.230089 -83.575188 95 120 150
61.222641 14.230089 -83.575188 91 127 152
62.061607 14.452435 -84.881050 69 100 119
61.943970 14.452435 -84.881050 55 76 86
61.826328 14.452435 -84.881050 42 54 57
62.688194 14.681838 -86.228371 32 41 42
63.577858 14.918642 -87.619148 26 31 33
63.456425 14.918642 -87.619148 24 28 30
62.329674 14.681838 -86.228371 29 36 39
60.296009 14.230089 -83.575188 28 38 45
59.268360 14.014482 -82.308899 26 37 48
59.154285 14.014482 -82.308899 26 35 47
59.948521 14.230089 -83.575188 25 35 47
60.767578 14.452435 -84.881050 33 46 59
63.632721 15.163210 -89.055527 40 61 72
63.509296 15.163210 -89.055527 35 54 63
62.363522 14.918642 -87.619148 29 44 52
62.242085 14.918642 -87.619148 22 32 40
62.120647 14.918642 -87.619148 14 19 25
65.151718 15.677217 -92.074364 14 17 26
65.024109 15.677217 -92.074364 24 31 47
66.015404 15.947514 -93.661850 42 55 73
69.479355 16.817379 -98.770676 43 60 69
74.781090 18.136389 -106.517403 32 41 40
73.198204 17.787611 -104.468987 39 48 45
71.675056 17.451996 -102.497871 47 61 56
68.931801 16.817379 -98.770676 40 51 48
65.236549 15.947514 -93.661850 31 40 39
57.215019 14.014482 -82.308899 25 31 30
53.838032 13.213655 -77.605530 19 22 23
50.148445 12.332744 -72.431831 19 21 24
49.389534 12.170471 -71.478783 41 47 53
48.650333 12.012413 -70.550484 27 34 38
47.930084 11.858408 -69.645988 12 12 15
47.833561 11.858408 -69.645988 13 13 17
47.737038 11.858408 -69.645988 13 15 20
47.640511 11.858408 -69.645988 13 15 19
47.543987 11.858408 -69.645988 11 12 14
47.447464 11.858408 -69.645988 13 13 15
46.751560 11.708302 -68.764397 26 29 35
46.656258 11.708302 -68.764397 24 29 35
46.560955 11.708302 -68.764397 16 17 22
46.465652 11.708302 -68.764397 23 27 36
46.964840 11.858408 -69.645988 23 27 32
46.868317 11.858408 -69.645988 20 22 26
47.379219 12.012413 -70.550484 16 17 21
47.903564 12.170471 -71.478783 14 15 20
48.441895 12.332744 -72.431831 14 15 18
48.994770 12.499403 -73.410637 15 15 18
50.958931 13.027547 -76.512497 17 19 21
53.888885 13.805310 -81.080406 23 24 28
56.297287 14.452435 -84.881050 49 54 63
56.179649 14.452435 -84.881050 64 71 79
58.819157 15.163210 -89.055527 72 78 84
59.673996 15.415930 -90.539787 78 85 89
105.085609 27.204582 -159.776093 78 86 91
111.418182 28.904869 -169.762100 72 81 89
111.182907 28.904869 -169.762100 67 75 83
114.526581 29.837284 -175.238297 63 71 79
114.283714 29.837284 -175.238297 61 68 76
117.842209 30.831860 -181.079575 60 69 79
121.646118 31.895027 -187.323700 60 72 83
153.052536 40.215469 -236.190750 58 70 81
159.667252 42.043446 -246.926697 56 67 79
159.325027 42.043446 -246.926697 56 67 79
158.982803 42.043446 -246.926697 56 68 81
158.640579 42.043446 -246.926697 57 69 81
158.298355 42.043446 -246.926697 60 70 81
165.477859 44.045513 -258.685120 63 71 81
165.119339 44.045513 -258.685120 65 74 83
164.760818 44.045513 -258.685120 68 77 85
164.402298 44.045513 -258.685120 73 80 89
164.043777 44.045513 -258.685120 86 89 90
156.245026 42.043446 -246.926697 96 93 86
142.910904 38.539825 -226.349472 109 104 91
126.753067 34.257622 -201.199524 107 101 85
117.751854 31.895027 -187.323700 102 97 78
109.912094 29.837284 -175.238297 111 103 84
109.669228 29.837284 -175.238297 121 116 98
106.006783 28.904869 -169.762100 126 124 112
105.771507 28.904869 -169.762100 134 134 125
102.338165 28.028963 -164.617798 127 129 124
99.106781 27.204582 -159.776093 66 72 77
96.060043 26.427309 -155.211060 34 31 36
90.664124 24.998806 -146.821274 36 36 45
88.080101 24.340942 -142.957565 44 56 70
83.487869 23.123896 -135.809677 35 46 61
79.333000 22.022757 -129.342560 32 42 57
79.153740 22.022757 -129.342560 33 42 57
78.974480 22.022757 -129.342560 35 45 56
75.213615 21.021723 -123.463348 43 52 64
71.779793 20.107735 -118.095375 45 51 64
68.632111 19.269913 -113.174736 37 32 37
67.077805 18.876648 -110.865051 63 62 60
63.063145 17.787611 -104.468987 95 98 92
58.424191 16.517067 -97.006920 51 57 50
55.325859 15.677217 -92.074364 40 48 43
53.388474 15.163210 -89.055527 47 53 52
51.574097 14.681838 -86.228371 54 66 63
50.650612 14.452435 -84.881050 66 88 99
48.270302 13.805310 -81.080406 56 73 95
48.157928 13.805310 -81.080406 37 44 55
45.986462 13.213655 -77.605530 41 53 64
31.179840 8.980153 -52.741623 38 51 63
29.127224 8.408689 -49.385338 35 46 57
28.796988 8.332935 -48.940426 30 41 52
28.729160 8.332935 -48.940426 27 37 47
50.498539 14.681838 -86.228371 26 35 45
51.191597 14.918642 -87.619148 24 33 43
51.907379 15.163210 -89.055527 23 29 39
51.783955 15.163210 -89.055527 24 30 39
51.660530 15.163210 -89.055527 23 30 39
51.537106 15.163210 -89.055527 21 27 36
51.413681 15.163210 -89.055527 23 30 38
50.462994 14.918642 -87.619148 24 30 37
49.542488 14.681838 -86.228371 27 33 35
48.650745 14.452435 -84.881050 28 33 34
38.347145 11.419208 -67.066513 37 40 41
31.298887 9.342988 -54.872601 48 51 53
30.910610 9.249557 -54.323872 39 43 42
29.089926 8.725998 -51.248936 43 50 47
28.220213 8.485833 -49.838417 46 55 58
27.643913 8.332935 -48.940426 49 60 66
27.329870 8.258533 -48.503460 46 54 61
27.262648 8.258533 -48.503460 43 47 54
27.195425 8.258533 -48.503460 100 81 87
42.793785 13.027547 -76.512497 149 65 73
43.925068 13.405156 -78.730255 80 37 43
43.815956 13.405156 -78.730255 28 30 37
45.693516 14.014482 -82.308899 25 30 38
45.579441 14.014482 -82.308899 26 32 41
45.465366 14.014482 -82.308899 27 35 42
44.674408 13.805310 -81.080406 29 38 44
43.270382 13.405156 -78.730255 30 39 45
42.544678 13.213655 -77.605530 30 41 48
40.143223 12.499403 -73.410637 29 41 48
40.041481 12.499403 -73.410637 26 35 42
38.888695 12.170471 -71.478783 39 51 54
40.383724 12.670628 -74.416267 46 57 64
37.221302 11.708302 -68.764397 26 32 41
36.661926 11.561948 -67.904839 56 80 83
36.116360 11.419208 -67.066513 146 186 187
37.408928 11.858408 -69.645988 134 157 174
40.991089 13.027547 -76.512497 42 48 63
42.070122 13.405156 -78.730255 21 25 33
41.961006 13.405156 -78.730255 22 27 35
41.254009 13.213655 -77.605530 28 37 42
40.566925 13.027547 -76.512497 30 39 45
38.820580 12.499403 -73.410637 26 34 38
38.202587 12.332744 -72.431831 25 34 37
38.102200 12.332744 -72.431831 25 32 35
