ply
		format ascii 1.0
		element vertex 25778
		property float x
		property float y
		property float z
		property uchar red
		property uchar green
		property uchar blue
		end_header
190.691788 57.917591 -271.619354 122 115 105
190.315338 57.917591 -271.619354 93 84 74
199.935684 60.965885 -285.915131 103 91 78
210.624939 64.352882 -301.799286 76 73 61
210.206665 64.352882 -301.799286 60 60 51
209.788406 64.352882 -301.799286 60 64 55
221.686020 68.138344 -319.552185 55 58 49
221.243134 68.138344 -319.552185 81 83 69
234.600281 72.396988 -339.524200 124 131 124
234.129730 72.396988 -339.524200 199 208 213
233.659164 72.396988 -339.524200 245 251 252
233.188614 72.396988 -339.524200 250 255 255
232.718048 72.396988 -339.524200 251 255 255
247.730667 77.223457 -362.159149 252 255 255
247.228745 77.223457 -362.159149 252 255 255
264.350159 82.739418 -388.027679 252 255 255
284.105621 89.103989 -417.875946 252 255 255
283.526489 89.103989 -417.875946 250 255 255
334.392303 105.304710 -493.853394 249 255 255
407.865173 128.705765 -603.598572 247 255 255
732.651550 231.670364 -1086.477417 245 255 255
1218.576294 386.117279 -1810.795776 243 255 255
1216.066650 386.117279 -1810.795776 242 255 255
1213.557007 386.117279 -1810.795776 240 255 255
726.628418 231.670364 -1086.477417 239 255 255
604.268860 193.058640 -905.397888 239 255 255
452.260529 144.793976 -679.048401 240 255 255
361.055542 115.835182 -543.238708 240 255 255
300.252197 96.529320 -452.698944 241 255 255
299.624786 96.529320 -452.698944 241 255 255
275.997589 89.103989 -417.875946 240 255 255
275.418427 89.103989 -417.875946 239 255 255
255.207916 82.739418 -388.027679 239 255 255
254.670135 82.739418 -388.027679 238 255 255
254.132355 82.739418 -388.027679 237 255 255
253.594574 82.739418 -388.027679 237 255 255
253.056793 82.739418 -388.027679 237 255 255
252.519028 82.739418 -388.027679 237 255 255
235.182495 77.223457 -362.159149 236 255 255
234.680573 77.223457 -362.159149 237 255 255
219.542480 72.396988 -339.524200 236 255 255
219.071915 72.396988 -339.524200 237 255 255
205.742462 68.138344 -319.552185 234 254 253
193.894043 64.352882 -301.799286 216 241 241
193.475769 64.352882 -301.799286 208 234 238
182.896576 60.965885 -285.915131 204 230 234
182.500320 60.965885 -285.915131 181 194 180
192.220963 64.352882 -301.799286 149 148 115
191.802689 64.352882 -301.799286 125 116 80
191.384415 64.352882 -301.799286 109 99 65
190.966141 64.352882 -301.799286 100 86 59
190.547867 64.352882 -301.799286 99 85 58
190.129593 64.352882 -301.799286 71 66 41
189.711319 64.352882 -301.799286 74 70 40
189.293045 64.352882 -301.799286 94 84 51
199.985062 68.138344 -319.552185 95 86 52
199.542191 68.138344 -319.552185 100 91 51
199.099304 68.138344 -319.552185 90 82 45
198.656433 68.138344 -319.552185 84 70 40
187.201691 64.352882 -301.799286 87 70 40
186.783417 64.352882 -301.799286 75 62 34
186.365143 64.352882 -301.799286 65 56 31
176.160202 60.965885 -285.915131 61 54 30
175.763931 60.965885 -285.915131 62 57 30
166.599289 57.917591 -271.619354 62 58 30
166.222855 57.917591 -271.619354 57 55 28
157.948959 55.159611 -258.685120 58 57 29
150.427231 52.652355 -246.926697 67 65 33
122.291496 42.901920 -201.199524 65 59 31
117.655052 41.369709 -194.013840 60 50 28
106.026207 37.366188 -175.238297 65 61 33
99.372231 35.101570 -164.617798 76 76 43
93.478706 33.095768 -155.211060 53 48 29
88.222321 31.306807 -146.821274 23 22 15
77.540405 27.579805 -129.342560 25 25 16
72.203735 25.741152 -120.719719 56 52 28
67.534149 24.132330 -113.174736 71 52 27
63.413925 22.712782 -106.517403 42 35 20
60.878891 21.855696 -102.497871 23 23 16
59.612080 21.450960 -100.599762 24 24 15
49.408054 17.820797 -83.575188 31 31 18
41.076855 14.850664 -69.645988 39 38 22
34.370598 12.455396 -58.412766 49 43 25
30.960550 11.246135 -52.741623 43 40 24
30.013281 10.927848 -51.248936 37 33 21
28.853445 10.530471 -49.385338 30 27 18
28.270983 10.342427 -48.503460 31 27 17
27.468010 10.072625 -47.238152 39 30 18
27.166313 9.985792 -46.830925 43 29 18
26.869772 9.900443 -46.430660 31 22 16
26.578259 9.816541 -46.037182 23 19 15
26.072546 9.652932 -45.269894 21 20 15
25.583416 9.494687 -44.527763 19 19 14
24.516911 9.120881 -42.774704 27 30 24
24.266554 9.049623 -42.440525 52 55 51
23.835308 8.910398 -41.787594 44 43 40
23.595886 8.842381 -41.468605 19 17 16
23.184452 8.709413 -40.845016 14 13 11
22.785210 8.580384 -40.239906 15 13 11
22.235321 8.393854 -39.365128 16 14 12
21.555954 8.157408 -38.256248 15 14 12
20.913813 7.933917 -37.208134 14 13 12
20.580322 7.826702 -36.705318 29 33 30
20.391668 7.774173 -36.458977 116 126 122
20.071720 7.671204 -35.976074 218 218 214
19.505167 7.473238 -35.047661 158 148 154
19.331871 7.425332 -34.822994 72 69 69
19.160784 7.378037 -34.601192 56 56 54
18.754463 7.239699 -33.952419 45 44 42
18.251129 7.063121 -33.124313 36 35 32
17.771765 6.894951 -32.335640 35 34 28
17.214609 6.695675 -31.401083 31 30 26
16.878401 6.581544 -30.865837 28 27 25
16.553461 6.471239 -30.348532 30 32 29
16.328955 6.399734 -30.013189 55 61 54
16.197868 6.364571 -29.848282 114 116 103
16.068213 6.329792 -29.685177 110 99 93
15.853806 6.261361 -29.364256 42 36 36
15.728092 6.227698 -29.206383 27 27 27
15.687614 6.227698 -29.206383 25 26 26
15.480678 6.161446 -28.895678 23 23 23
15.358933 6.128846 -28.742790 21 21 22
15.238471 6.096589 -28.591513 23 23 23
15.198846 6.096589 -28.591513 27 28 28
15.159220 6.096589 -28.591513 28 29 29
15.280440 6.161446 -28.895678 29 30 30
15.240394 6.161446 -28.895678 28 29 29
15.200346 6.161446 -28.895678 25 25 25
15.080086 6.128846 -28.742790 22 22 22
15.040250 6.128846 -28.742790 24 24 24
14.843342 6.064669 -28.441818 27 28 28
14.650516 6.001823 -28.147085 31 32 31
14.536188 5.970886 -28.001997 30 31 30
14.349447 5.909958 -27.716263 27 28 28
14.238389 5.879959 -27.575571 30 31 30
14.057456 5.820864 -27.298429 30 32 32
13.676004 5.678195 -26.629351 29 30 31
13.572566 5.650497 -26.499451 27 27 27
13.340611 5.568999 -26.117247 30 31 31
13.240757 5.542353 -25.992285 35 37 37
13.079570 5.489819 -25.745913 35 36 36
12.921411 5.438272 -25.504166 34 35 35
12.825849 5.412859 -25.384987 30 31 32
12.441830 5.265235 -24.692669 27 28 29
12.407608 5.265235 -24.692669 25 26 26
12.206927 5.194403 -24.360481 22 22 23
12.118821 5.171214 -24.251730 20 21 21
12.031498 5.148231 -24.143944 22 24 23
11.892326 5.102871 -23.931221 25 27 27
11.755586 5.058305 -23.722216 25 27 27
11.671741 5.036313 -23.619076 24 26 26
11.391368 4.929157 -23.116543 27 28 28
11.263471 4.887560 -22.921465 26 28 28
11.137713 4.846661 -22.729654 26 27 28
11.059937 4.826466 -22.634947 28 30 30
10.982804 4.806439 -22.541027 31 32 32
10.861427 4.766880 -22.355503 28 29 29
10.786057 4.747344 -22.263882 25 25 26
10.667761 4.708747 -22.082876 25 26 25
10.342847 4.578466 -21.471888 33 34 32
10.272485 4.560441 -21.387352 32 32 32
10.162822 4.524812 -21.220263 27 27 27
10.133411 4.524812 -21.220263 26 26 26
10.025677 4.489736 -21.055765 25 25 24
9.957898 4.472401 -20.974468 25 27 25
9.852746 4.438129 -20.813745 26 27 26
9.639240 4.354706 -20.422508 27 29 28
9.539212 4.322208 -20.270102 30 32 32
9.405830 4.274361 -20.045710 30 32 32
9.343571 4.258646 -19.972012 29 30 31
9.214263 4.212189 -19.754135 28 30 30
9.153599 4.196927 -19.682564 30 33 32
8.963930 4.122249 -19.332340 37 41 40
8.905445 4.107631 -19.263784 37 40 42
8.847373 4.093116 -19.195715 33 34 36
8.758869 4.064393 -19.061008 30 32 33
8.701919 4.050181 -18.994362 29 31 32
8.615347 4.022055 -18.862455 27 29 30
8.559484 4.008138 -18.797188 26 27 28
8.474784 3.980591 -18.667997 26 28 28
8.448912 3.980591 -18.667997 28 30 29
8.337090 3.939972 -18.477509 30 31 31
8.145251 3.861173 -18.107958 28 29 31
8.093178 3.848345 -18.047798 26 27 28
8.014910 3.822943 -17.928671 27 30 29
7.963778 3.810368 -17.869696 29 31 31
7.912983 3.797875 -17.811106 28 31 31
7.836908 3.773133 -17.695072 27 28 30
7.787019 3.760883 -17.637621 24 25 27
7.737453 3.748711 -17.580542 24 26 26
7.566172 3.677307 -17.245674 25 26 26
7.518403 3.665670 -17.191099 25 27 27
7.494577 3.665670 -17.191099 29 32 32
7.423766 3.642616 -17.082979 30 31 33
7.376892 3.631197 -17.029427 26 27 29
7.330311 3.619849 -16.976210 23 24 26
7.216577 3.575160 -16.766628 25 27 27
7.149208 3.553226 -16.663765 29 32 31
7.039736 3.510157 -16.461781 29 32 32
6.974651 3.489012 -16.362612 29 31 30
6.910345 3.468119 -16.264633 28 29 28
6.867242 3.457767 -16.216082 27 28 27
6.824397 3.447476 -16.167820 28 29 28
6.761741 3.427076 -16.072151 29 32 30
6.739466 3.427076 -16.072151 31 33 32
6.717191 3.427076 -16.072151 33 36 34
161.330261 42.623074 -201.199524 26 22 19
161.051407 42.623074 -201.199524 27 22 20
166.956116 44.262421 -208.937973 28 25 22
173.333206 46.032917 -217.295486 30 28 26
188.078323 50.035778 -236.190750 31 29 29
187.750977 50.035778 -236.190750 34 31 29
165.797821 44.262421 -208.937973 38 34 31
153.686234 41.100819 -194.013840 42 37 33
148.127090 39.683548 -187.323700 44 39 34
138.327637 37.123322 -175.238297 43 38 35
133.769623 35.963215 -169.762100 43 40 37
133.534348 35.963215 -169.762100 47 43 39
133.299072 35.963215 -169.762100 50 46 41
133.063782 35.963215 -169.762100 52 49 43
132.828506 35.963215 -169.762100 50 46 42
132.593231 35.963215 -169.762100 51 46 43
132.357956 35.963215 -169.762100 52 48 45
132.122681 35.963215 -169.762100 57 48 45
131.887390 35.963215 -169.762100 68 56 49
131.652115 35.963215 -169.762100 72 52 44
131.416840 35.963215 -169.762100 84 54 44
131.181564 35.963215 -169.762100 95 59 49
130.946289 35.963215 -169.762100 109 71 54
130.710999 35.963215 -169.762100 119 70 51
130.475723 35.963215 -169.762100 108 72 55
130.240448 35.963215 -169.762100 90 71 60
130.005173 35.963215 -169.762100 96 80 71
129.769897 35.963215 -169.762100 112 93 83
125.609322 34.873421 -164.617798 126 111 99
121.693489 33.847733 -159.776093 112 108 96
121.472054 33.847733 -159.776093 89 82 75
121.250618 33.847733 -159.776093 86 77 70
121.029175 33.847733 -159.776093 79 72 58
120.807739 33.847733 -159.776093 76 68 51
120.586304 33.847733 -159.776093 81 72 57
116.925865 32.880657 -155.211060 87 75 64
116.710754 32.880657 -155.211060 92 77 68
113.259651 31.967304 -150.899643 113 81 68
113.050514 31.967304 -150.899643 158 89 66
116.065422 32.880657 -155.211060 181 96 64
115.850311 32.880657 -155.211060 182 97 62
115.635201 32.880657 -155.211060 200 99 64
115.420082 32.880657 -155.211060 205 102 66
115.204971 32.880657 -155.211060 202 102 67
114.989861 32.880657 -155.211060 205 102 67
118.150482 33.847733 -159.776093 211 102 67
121.502647 34.873421 -164.617798 215 106 69
125.064331 35.963215 -169.762100 214 108 69
124.829048 35.963215 -169.762100 214 109 73
124.593773 35.963215 -169.762100 211 109 73
124.358490 35.963215 -169.762100 211 106 69
124.123215 35.963215 -169.762100 212 105 68
127.884323 37.123322 -175.238297 210 103 66
127.641457 37.123322 -175.238297 210 101 66
127.398582 37.123322 -175.238297 212 102 67
127.155716 37.123322 -175.238297 215 104 68
131.143280 38.360764 -181.079575 212 104 68
130.892319 38.360764 -181.079575 210 104 68
130.641357 38.360764 -181.079575 207 104 69
130.390396 38.360764 -181.079575 205 106 70
130.139420 38.360764 -181.079575 207 107 70
129.888458 38.360764 -181.079575 217 110 71
129.637497 38.360764 -181.079575 230 114 73
133.848145 39.683548 -187.323700 234 116 75
138.359543 41.100819 -194.013840 230 117 76
148.713013 44.262421 -208.937973 215 112 77
148.423431 44.262421 -208.937973 161 101 81
154.059204 46.032917 -217.295486 128 99 88
160.164642 47.950954 -226.349472 131 105 90
159.850937 47.950954 -226.349472 134 110 94
166.473633 50.035778 -236.190750 129 111 99
166.146286 50.035778 -236.190750 124 108 100
165.818939 50.035778 -236.190750 122 110 101
181.252701 54.801094 -258.685120 129 114 105
189.938889 57.541145 -271.619354 126 112 101
199.539413 60.569630 -285.915131 102 92 82
199.143158 60.569630 -285.915131 81 80 69
198.746902 60.569630 -285.915131 66 68 55
209.370132 63.934608 -301.799286 63 63 48
208.951859 63.934608 -301.799286 62 63 44
220.800262 67.695465 -319.552185 69 72 61
234.129730 71.926430 -339.524200 146 156 155
233.659164 71.926430 -339.524200 227 238 238
233.188614 71.926430 -339.524200 245 254 255
232.718048 71.926430 -339.524200 247 255 255
247.730667 76.721527 -362.159149 249 255 255
247.228745 76.721527 -362.159149 250 255 255
264.350159 82.201637 -388.027679 251 255 255
284.105621 88.524841 -417.875946 250 255 255
307.153687 95.901909 -452.698944 249 255 255
367.831543 115.082291 -543.238708 248 255 255
407.865173 127.869217 -603.598572 247 255 255
523.322510 164.403275 -776.055359 246 255 255
731.145752 230.164581 -1086.477417 245 255 255
1216.066650 383.607635 -1810.795776 244 255 255
910.167725 287.705719 -1358.096802 241 255 255
908.285522 287.705719 -1358.096802 240 255 255
725.122620 230.164581 -1086.477417 239 255 255
603.014038 191.803818 -905.397888 241 255 255
451.319427 143.852859 -679.048401 241 255 255
360.302643 115.082291 -543.238708 243 255 255
359.549744 115.082291 -543.238708 243 255 255
298.997375 95.901909 -452.698944 242 255 255
298.369965 95.901909 -452.698944 242 255 255
274.839294 88.524841 -417.875946 240 255 255
254.670135 82.201637 -388.027679 240 255 255
254.132355 82.201637 -388.027679 241 255 255
273.101868 88.524841 -417.875946 240 255 255
272.522705 88.524841 -417.875946 240 255 255
252.519028 82.201637 -388.027679 239 255 255
251.981247 82.201637 -388.027679 238 255 255
234.680573 76.721527 -362.159149 239 255 255
219.542480 71.926430 -339.524200 238 255 255
219.071915 71.926430 -339.524200 236 254 254
205.742462 67.695465 -319.552185 230 251 251
193.894043 63.934608 -301.799286 210 235 239
193.475769 63.934608 -301.799286 196 221 228
193.057510 63.934608 -301.799286 191 211 210
192.639236 63.934608 -301.799286 181 178 150
192.220963 63.934608 -301.799286 164 152 114
191.802689 63.934608 -301.799286 139 130 91
191.384415 63.934608 -301.799286 114 105 71
190.966141 63.934608 -301.799286 101 89 64
190.547867 63.934608 -301.799286 100 90 64
190.129593 63.934608 -301.799286 76 70 47
189.711319 63.934608 -301.799286 68 64 38
189.293045 63.934608 -301.799286 94 84 51
199.985062 67.695465 -319.552185 101 92 57
199.542191 67.695465 -319.552185 92 84 49
199.099304 67.695465 -319.552185 79 72 42
198.656433 67.695465 -319.552185 69 59 34
187.201691 63.934608 -301.799286 66 55 32
186.783417 63.934608 -301.799286 54 49 30
176.556458 60.569630 -285.915131 53 51 28
176.160202 60.569630 -285.915131 54 52 29
166.975739 57.541145 -271.619354 54 51 28
166.599289 57.541145 -271.619354 46 43 24
166.222855 57.541145 -271.619354 57 52 28
157.948959 54.801094 -258.685120 66 60 31
157.590439 54.801094 -258.685120 55 55 29
126.995010 44.262421 -208.937973 45 45 25
117.655052 41.100819 -194.013840 37 37 20
109.560417 38.360764 -181.079575 49 49 26
102.477615 35.963215 -169.762100 65 63 34
96.228081 33.847733 -159.776093 49 45 26
90.672935 31.967304 -150.899643 30 27 18
77.540405 27.400547 -129.342560 31 30 19
72.203735 25.573843 -120.719719 64 51 27
67.534149 23.975477 -113.174736 72 45 25
62.194427 22.131210 -104.468987 35 28 18
59.751507 21.311537 -100.599762 19 18 13
54.560211 19.505474 -92.074364 26 27 17
42.820312 15.344306 -72.431831 41 41 23
38.142792 13.700274 -64.671280 43 43 24
32.953255 11.864154 -56.003994 58 49 26
30.370827 10.960218 -51.737022 53 44 24
29.732784 10.755355 -50.769974 31 29 19
28.593504 10.367774 -48.940426 23 22 16
27.775000 10.094938 -47.652519 23 21 14
27.231216 9.920887 -46.830925 27 23 15
26.934122 9.836094 -46.430660 30 22 14
26.869772 9.836094 -46.430660 25 18 13
26.578259 9.752737 -46.037182 22 19 15
26.072546 9.590191 -45.269894 19 18 14
25.375420 9.356284 -44.165752 19 19 15
24.516911 9.061598 -42.774704 31 34 29
24.266554 8.990804 -42.440525 52 54 50
23.835308 8.852484 -41.787594 37 35 32
23.417130 8.718355 -41.154449 17 15 14
23.184452 8.652804 -40.845016 15 14 12
22.617670 8.461933 -39.944023 15 14 13
22.075356 8.279302 -39.081924 17 15 12
21.256565 7.991826 -37.724911 14 13 11
20.771542 7.828727 -36.955017 14 13 12
20.580322 7.775831 -36.705318 23 25 22
20.391668 7.723644 -36.458977 96 102 92
20.071720 7.621344 -35.976074 208 205 189
19.760136 7.521719 -35.505798 188 178 171
19.456594 7.424664 -35.047661 138 131 125
19.283609 7.377070 -34.822994 129 122 116
18.991861 7.283689 -34.382198 107 99 96
18.707409 7.192643 -33.952419 72 68 66
18.094887 6.974684 -32.923561 49 47 46
17.518396 6.769547 -31.955219 35 35 33
16.974850 6.576131 -31.042213 43 44 40
16.646460 6.465297 -30.519030 49 50 46
16.328955 6.358138 -30.013189 62 65 59
16.109354 6.288650 -29.685177 73 72 66
15.809049 6.187220 -29.206383 54 49 46
15.768570 6.187220 -29.206383 29 27 27
15.643985 6.154133 -29.050200 25 25 25
15.520725 6.121398 -28.895678 25 24 24
15.398769 6.089010 -28.742790 25 24 24
15.278097 6.056963 -28.591513 23 23 24
15.158689 6.025251 -28.441818 25 26 27
15.119270 6.025251 -28.441818 28 29 29
15.159220 6.056963 -28.591513 29 30 30
15.119594 6.056963 -28.591513 28 29 29
15.159757 6.089010 -28.742790 26 26 26
15.119921 6.089010 -28.742790 23 23 23
15.080086 6.089010 -28.742790 21 21 21
14.961091 6.056963 -28.591513 24 25 24
14.766033 5.993869 -28.293684 28 29 29
14.650516 5.962813 -28.147085 30 32 32
14.536188 5.932077 -28.001997 30 31 31
14.349447 5.871546 -27.716263 27 28 28
14.238389 5.841741 -27.575571 29 30 30
14.057456 5.783030 -27.298429 31 32 32
13.676004 5.641289 -26.629351 29 31 32
13.572566 5.613770 -26.499451 28 29 29
13.340611 5.532803 -26.117247 33 34 33
13.240757 5.506330 -25.992285 37 38 37
13.079570 5.454137 -25.745913 33 35 35
12.921411 5.402925 -25.504166 31 33 34
12.825849 5.377677 -25.384987 29 30 32
12.498642 5.254899 -24.805422 27 28 29
12.407608 5.231013 -24.692669 25 26 26
12.206927 5.160641 -24.360481 23 23 24
12.118821 5.137602 -24.251730 21 22 22
12.031498 5.114769 -24.143944 25 26 25
11.892326 5.069705 -23.931221 27 29 29
11.755586 5.025428 -23.722216 26 27 27
11.671741 5.003578 -23.619076 26 27 26
11.391368 4.897119 -23.116543 29 30 29
11.263471 4.855793 -22.921465 28 29 29
11.137713 4.815159 -22.729654 28 29 29
11.059937 4.795095 -22.634947 30 32 32
10.982804 4.775199 -22.541027 33 34 34
10.861427 4.735897 -22.355503 29 30 30
10.786057 4.716487 -22.263882 25 25 26
10.624571 4.659202 -21.993471 24 26 25
10.342847 4.548707 -21.471888 31 33 31
10.272485 4.530799 -21.387352 32 32 31
10.162822 4.495402 -21.220263 29 29 28
10.093983 4.477910 -21.137693 26 26 26
10.025677 4.460554 -21.055765 23 24 24
9.957898 4.443332 -20.974468 23 25 25
9.852746 4.409283 -20.813745 24 25 24
9.675614 4.342728 -20.499575 25 27 26
9.539212 4.294116 -20.270102 29 31 30
9.440667 4.262307 -20.119953 31 32 32
9.343571 4.230967 -19.972012 29 30 30
9.214263 4.184811 -19.754135 28 31 30
9.120553 4.154595 -19.611507 31 34 33
8.963930 4.095455 -19.332340 35 39 38
8.905445 4.080933 -19.263784 35 37 38
8.847373 4.066512 -19.195715 32 33 35
8.758869 4.037975 -19.061008 31 33 33
8.701919 4.023857 -18.994362 30 31 32
8.645366 4.009836 -18.928179 28 29 30
8.589205 3.995913 -18.862455 26 27 27
8.474784 3.954718 -18.667997 26 28 27
8.448912 3.954718 -18.667997 28 30 29
8.337090 3.914364 -18.477509 29 30 30
8.145251 3.836076 -18.107958 27 28 29
8.093178 3.823332 -18.047798 25 26 27
8.014910 3.798095 -17.928671 28 29 29
7.963778 3.785602 -17.869696 30 31 31
7.912983 3.773190 -17.811106 29 31 32
7.836908 3.748609 -17.695072 27 28 30
7.787019 3.736438 -17.637621 25 26 27
7.737453 3.724346 -17.580542 25 26 27
7.542228 3.641845 -17.191099 25 26 27
7.518403 3.641845 -17.191099 26 29 29
7.470935 3.630356 -17.136869 31 34 34
7.423766 3.618940 -17.082979 30 32 34
7.353839 3.596322 -16.976210 26 27 29
7.330311 3.596322 -16.976210 24 26 26
7.216577 3.551923 -16.766628 25 28 27
7.127345 3.519336 -16.612804 29 32 31
7.039736 3.487342 -16.461781 30 32 32
6.953706 3.455925 -16.313475 29 32 31
6.910345 3.445578 -16.264633 28 29 29
6.867242 3.435292 -16.216082 27 28 27
6.824397 3.425068 -16.167820 28 30 29
6.761741 3.404802 -16.072151 29 31 30
6.739466 3.404802 -16.072151 27 29 29
6.717191 3.404802 -16.072151 27 31 30
150.204025 39.423931 -187.323700 23 19 18
134.710739 35.727940 -169.762100 29 23 20
153.686234 40.831928 -194.013840 28 23 20
148.127090 39.423931 -187.323700 27 22 20
138.327637 36.880451 -175.238297 29 23 20
133.769623 35.727940 -169.762100 30 25 22
133.534348 35.727940 -169.762100 31 27 24
133.299072 35.727940 -169.762100 31 28 27
133.063782 35.727940 -169.762100 33 29 28
132.828506 35.727940 -169.762100 36 31 28
132.593231 35.727940 -169.762100 39 33 30
132.357956 35.727940 -169.762100 41 38 35
132.122681 35.727940 -169.762100 44 40 36
131.887390 35.727940 -169.762100 46 42 39
131.652115 35.727940 -169.762100 45 43 41
131.416840 35.727940 -169.762100 47 45 43
131.181564 35.727940 -169.762100 52 45 42
126.978210 34.645275 -164.617798 66 55 46
126.750069 34.645275 -164.617798 68 52 42
126.521919 34.645275 -164.617798 69 55 46
126.293770 34.645275 -164.617798 70 59 52
126.065620 34.645275 -164.617798 85 72 64
125.837471 34.645275 -164.617798 102 87 75
121.914932 33.626297 -159.776093 96 86 75
121.693489 33.626297 -159.776093 93 88 87
118.001427 32.665543 -155.211060 87 83 79
117.786316 32.665543 -155.211060 80 75 67
114.305336 31.758167 -150.899643 73 69 53
114.096199 31.758167 -150.899643 60 55 35
110.809036 30.899839 -146.821274 63 55 37
85.258446 23.818626 -113.174736 81 68 54
80.095619 22.417530 -106.517403 95 80 66
79.947990 22.417530 -106.517403 100 83 68
83.057526 23.332531 -110.865051 110 83 68
104.161278 29.315231 -139.291977 132 87 63
106.704231 30.086685 -142.957565 131 83 56
106.506104 30.086685 -142.957565 169 90 62
106.307976 30.086685 -142.957565 194 99 69
106.109848 30.086685 -142.957565 197 102 69
111.795700 31.758167 -150.899643 198 101 67
114.774750 32.665543 -155.211060 204 100 65
121.502647 34.645275 -164.617798 210 103 67
125.064331 35.727940 -169.762100 215 106 68
124.829048 35.727940 -169.762100 216 106 69
124.593773 35.727940 -169.762100 210 107 71
124.358490 35.727940 -169.762100 206 106 69
124.123215 35.727940 -169.762100 210 105 67
123.887939 35.727940 -169.762100 214 103 67
123.652657 35.727940 -169.762100 215 99 65
123.417381 35.727940 -169.762100 211 97 65
127.155716 36.880451 -175.238297 209 96 64
126.912849 36.880451 -175.238297 209 97 64
126.669983 36.880451 -175.238297 213 99 65
126.427116 36.880451 -175.238297 210 100 66
126.184250 36.880451 -175.238297 206 100 67
125.941376 36.880451 -175.238297 205 104 68
125.698509 36.880451 -175.238297 210 107 70
129.637497 38.109802 -181.079575 223 112 71
129.386536 38.109802 -181.079575 231 113 72
133.588516 39.423931 -187.323700 227 114 74
138.090652 40.831928 -194.013840 208 110 76
137.821762 40.831928 -194.013840 137 93 80
137.552872 40.831928 -194.013840 105 90 83
142.368561 42.344223 -201.199524 116 101 91
137.015091 40.831928 -194.013840 117 102 92
141.810867 42.344223 -201.199524 115 101 91
141.532028 42.344223 -201.199524 110 97 87
152.553421 45.731762 -217.295486 121 106 96
165.491592 49.708435 -236.190750 144 131 117
180.894180 54.442574 -258.685120 127 116 102
189.562454 57.164703 -271.619354 110 97 86
199.143158 60.173370 -285.915131 99 93 84
198.746902 60.173370 -285.915131 82 82 72
198.350647 60.173370 -285.915131 61 61 49
208.951859 63.516335 -301.799286 54 57 42
208.533585 63.516335 -301.799286 62 65 52
220.357391 67.252594 -319.552185 104 111 106
233.659164 71.455879 -339.524200 192 204 207
233.188614 71.455879 -339.524200 242 251 252
248.232590 76.219604 -362.159149 248 255 255
247.730667 76.219604 -362.159149 251 255 255
264.887939 81.663857 -388.027679 251 255 255
284.684784 87.945694 -417.875946 251 255 255
369.337311 114.329407 -543.238708 251 255 255
368.584442 114.329407 -543.238708 252 255 255
459.789429 142.911758 -679.048401 251 255 255
524.398071 163.327713 -776.055359 250 255 255
523.322510 163.327713 -776.055359 249 255 255
522.246948 163.327713 -776.055359 248 255 255
729.639954 228.658813 -1086.477417 246 255 255
910.167725 285.823517 -1358.096802 244 255 255
908.285522 285.823517 -1358.096802 243 255 255
906.403259 285.823517 -1358.096802 244 255 255
904.521057 285.823517 -1358.096802 244 255 255
601.759216 190.549011 -905.397888 245 255 255
514.718079 163.327713 -776.055359 246 255 255
513.642517 163.327713 -776.055359 246 255 255
358.796875 114.329407 -543.238708 244 255 255
325.494507 103.935822 -493.853394 245 255 255
297.742554 95.274506 -452.698944 244 255 255
274.260132 87.945694 -417.875946 244 255 255
273.681000 87.945694 -417.875946 246 255 255
295.860352 95.274506 -452.698944 246 255 255
295.232941 95.274506 -452.698944 246 255 255
271.943573 87.945694 -417.875946 244 255 255
271.364410 87.945694 -417.875946 242 255 255
251.443466 81.663857 -388.027679 241 255 255
219.542480 71.455879 -339.524200 240 255 255
219.071915 71.455879 -339.524200 235 250 251
205.742462 67.252594 -319.552185 219 236 232
205.299576 67.252594 -319.552185 199 219 211
193.475769 63.516335 -301.799286 185 203 194
193.057510 63.516335 -301.799286 170 183 170
192.639236 63.516335 -301.799286 161 166 143
192.220963 63.516335 -301.799286 169 173 151
191.802689 63.516335 -301.799286 135 135 110
202.642319 67.252594 -319.552185 120 113 80
202.199448 67.252594 -319.552185 112 106 78
201.756561 67.252594 -319.552185 106 97 73
190.129593 63.516335 -301.799286 111 93 66
189.711319 63.516335 -301.799286 81 69 45
189.293045 63.516335 -301.799286 88 78 45
199.985062 67.252594 -319.552185 102 93 57
199.542191 67.252594 -319.552185 94 85 51
199.099304 67.252594 -319.552185 72 66 40
198.656433 67.252594 -319.552185 63 55 33
198.213562 67.252594 -319.552185 59 53 31
186.783417 63.516335 -301.799286 64 60 34
186.365143 63.516335 -301.799286 70 67 34
176.160202 60.173370 -285.915131 69 64 33
175.763931 60.173370 -285.915131 49 45 26
166.599289 57.164703 -271.619354 35 32 21
166.222855 57.164703 -271.619354 43 39 24
165.846405 57.164703 -271.619354 42 39 23
157.590439 54.442574 -258.685120 38 38 24
143.559586 49.708435 -236.190750 34 36 24
126.705437 43.972847 -208.937973 26 28 17
117.386162 40.831928 -194.013840 31 30 19
109.309456 38.109802 -181.079575 46 43 25
102.242332 35.727940 -169.762100 40 37 23
96.006638 33.626297 -159.776093 36 32 20
81.417419 28.582352 -135.809677 37 33 21
72.203735 25.406534 -120.719719 49 40 24
66.155899 23.332531 -110.865051 45 34 21
59.890930 21.172112 -100.599762 26 24 17
54.687817 19.377865 -92.074364 23 23 15
42.920700 15.243920 -72.431831 31 31 20
37.343296 13.294117 -63.167294 43 43 25
34.085049 12.162703 -57.791355 41 42 23
31.964657 11.432940 -54.323872 47 40 21
30.084309 10.785792 -51.248936 44 36 20
29.457479 10.586056 -50.299881 29 27 18
28.338205 10.207982 -48.503460 21 19 14
27.533478 9.941688 -47.238152 19 18 13
27.231216 9.855983 -46.830925 21 18 13
26.934122 9.771744 -46.430660 22 16 12
26.642063 9.688932 -46.037182 23 19 14
26.578259 9.688932 -46.037182 23 20 15
25.645128 9.371263 -44.527763 20 18 14
25.170780 9.220113 -43.809574 19 19 15
24.325373 8.931985 -42.440525 31 32 28
23.893221 8.794569 -41.787594 49 49 44
23.474167 8.661319 -41.154449 31 28 26
23.241060 8.596196 -40.845016 17 16 14
22.840979 8.468844 -40.239906 17 16 14
22.129520 8.225137 -39.081924 16 15 14
21.762230 8.108468 -38.527569 16 15 13
21.109968 7.884787 -37.464741 15 14 13
20.631193 7.724960 -36.705318 16 15 13
20.580322 7.724960 -36.705318 25 26 23
20.391668 7.673114 -36.458977 102 106 93
20.205532 7.621960 -36.215916 225 222 211
19.760136 7.472510 -35.505798 243 240 234
19.456594 7.376091 -35.047661 238 235 229
19.408020 7.376091 -35.047661 236 231 224
19.235348 7.328808 -34.822994 205 195 181
18.825066 7.190528 -34.165958 160 153 133
18.544449 7.101205 -33.741535 121 115 102
17.833099 6.846072 -32.529266 65 65 59
17.072405 6.570655 -31.220617 66 70 61
16.740507 6.459288 -30.691454 74 78 68
16.328955 6.316542 -30.013189 76 78 70
15.935200 6.179968 -29.364256 51 51 49
15.809049 6.146742 -29.206383 38 35 32
15.600820 6.081351 -28.895678 29 26 26
15.478440 6.049175 -28.742790 25 24 23
15.438604 6.049175 -28.742790 27 26 24
15.398769 6.049175 -28.742790 26 25 25
15.198107 5.985833 -28.441818 25 26 27
15.158689 5.985833 -28.441818 27 28 28
15.119270 5.985833 -28.441818 27 28 29
15.079852 5.985833 -28.441818 30 31 30
15.119594 6.017337 -28.591513 29 29 29
15.159757 6.049175 -28.742790 24 23 24
15.119921 6.049175 -28.742790 20 20 20
15.000716 6.017337 -28.591513 20 21 21
14.882760 5.985833 -28.441818 25 26 25
14.766033 5.954657 -28.293684 29 31 30
14.650516 5.923803 -28.147085 31 32 33
14.536188 5.893268 -28.001997 31 31 31
14.423034 5.863046 -27.858397 27 28 28
14.238389 5.803523 -27.575571 27 28 28
13.917582 5.688030 -27.026802 31 31 32
13.609292 5.577044 -26.499451 30 31 32
13.506680 5.549971 -26.370811 27 29 30
13.340611 5.496606 -26.117247 32 33 33
13.177706 5.444257 -25.868511 36 37 36
13.079570 5.418455 -25.745913 32 33 33
12.921411 5.367578 -25.504166 32 33 34
12.825849 5.342495 -25.384987 30 31 32
12.498642 5.220520 -24.805422 27 28 29
12.407608 5.196791 -24.692669 25 26 26
12.206927 5.126879 -24.360481 24 24 24
12.118821 5.103991 -24.251730 24 24 23
12.031498 5.081307 -24.143944 27 28 27
11.892326 5.036538 -23.931221 29 30 30
11.755586 4.992550 -23.722216 25 26 27
11.671741 4.970844 -23.619076 25 27 27
11.391368 4.865081 -23.116543 28 30 30
11.263471 4.824026 -22.921465 28 29 29
11.184511 4.803756 -22.825157 28 29 29
11.059937 4.763725 -22.634947 31 33 32
10.982804 4.743958 -22.541027 33 34 34
10.861427 4.704914 -22.355503 28 29 30
10.786057 4.685631 -22.263882 24 24 25
10.624571 4.628721 -21.993471 26 26 25
10.302127 4.501158 -21.387352 33 34 33
10.232201 4.483506 -21.303480 32 32 32
10.162822 4.465992 -21.220263 28 29 29
10.093983 4.448615 -21.137693 25 26 26
9.986967 4.414263 -20.974468 23 24 24
9.919599 4.397285 -20.893797 23 24 25
9.815140 4.363718 -20.734303 24 24 24
9.675614 4.314317 -20.499575 25 26 26
9.539212 4.266023 -20.270102 28 30 29
9.440667 4.234422 -20.119953 30 31 31
9.343571 4.203287 -19.972012 28 29 29
9.214263 4.157433 -19.754135 28 31 30
9.120553 4.127415 -19.611507 32 35 34
8.932143 4.054234 -19.263784 37 39 39
8.873977 4.039908 -19.195715 36 38 39
8.847373 4.039908 -19.195715 32 34 36
8.758869 4.011558 -19.061008 31 33 34
8.732452 4.011558 -19.061008 30 31 32
8.675594 3.997532 -18.994362 27 28 29
8.589205 3.969771 -18.862455 25 25 27
8.504007 3.942393 -18.732370 25 26 26
8.448912 3.928845 -18.667997 28 29 29
8.337090 3.888755 -18.477509 28 29 29
8.145251 3.810980 -18.107958 26 27 27
8.120155 3.810980 -18.107958 25 26 26
8.014910 3.773248 -17.928671 27 29 29
7.963778 3.760836 -17.869696 30 32 32
7.887124 3.736255 -17.752899 29 31 33
7.836908 3.724085 -17.695072 28 28 30
7.761819 3.699981 -17.580542 25 26 27
7.712494 3.688045 -17.523830 24 26 27
7.542228 3.618019 -17.191099 25 27 27
7.518403 3.618019 -17.191099 28 31 31
7.470935 3.606606 -17.136869 31 33 34
7.423766 3.595264 -17.082979 28 31 32
7.353839 3.572794 -16.976210 25 27 28
7.330311 3.572794 -16.976210 24 27 26
7.216577 3.528685 -16.766628 26 30 28
7.127345 3.496312 -16.612804 29 32 32
7.018468 3.454061 -16.412046 30 32 32
6.953706 3.433316 -16.313475 30 32 32
6.910345 3.423036 -16.264633 30 32 31
6.867242 3.412818 -16.216082 29 31 30
6.824397 3.402661 -16.167820 30 31 31
6.761741 3.382527 -16.072151 28 30 30
6.739466 3.382527 -16.072151 23 22 24
6.717191 3.382527 -16.072151 22 25 24
19.855654 5.186142 -24.805422 33 33 33
19.731178 5.162569 -24.692669 32 31 31
19.519505 5.116059 -24.470213 32 31 31
19.752518 5.186142 -24.805422 31 31 31
20.178843 5.307314 -25.384987 31 30 30
20.333696 5.357383 -25.624468 30 28 29
20.394382 5.382773 -25.745913 29 26 27
134.240173 35.492661 -169.762100 29 25 25
134.004898 35.492661 -169.762100 29 24 23
133.769623 35.492661 -169.762100 29 23 22
133.534348 35.492661 -169.762100 28 23 22
133.299072 35.492661 -169.762100 27 21 21
133.063782 35.492661 -169.762100 27 21 21
125.015068 33.404858 -159.776093 28 22 20
124.793633 33.404858 -159.776093 28 23 21
128.347107 34.417126 -164.617798 28 24 22
132.122681 35.492661 -169.762100 29 24 22
131.887390 35.492661 -169.762100 30 25 24
127.662659 34.417126 -164.617798 30 27 28
123.686440 33.404858 -159.776093 33 29 28
123.464996 33.404858 -159.776093 35 30 28
123.243561 33.404858 -159.776093 36 32 30
123.022125 33.404858 -159.776093 36 33 31
122.800682 33.404858 -159.776093 40 37 35
122.579247 33.404858 -159.776093 44 40 38
122.357811 33.404858 -159.776093 54 48 45
118.646759 32.450432 -155.211060 68 59 54
118.431648 32.450432 -155.211060 83 70 62
118.216537 32.450432 -155.211060 94 88 79
118.001427 32.450432 -155.211060 84 80 70
114.514473 31.549032 -150.899643 77 70 59
114.305336 31.549032 -150.899643 70 65 48
102.686577 28.394129 -135.809677 56 51 32
85.415298 23.661774 -113.174736 51 44 28
73.078667 20.281521 -97.006920 64 53 39
66.965187 18.619101 -89.055527 89 74 57
66.841766 18.619101 -89.055527 103 88 68
67.830307 18.929419 -90.539787 111 98 83
72.540886 20.281521 -97.006920 134 121 102
88.146973 24.690546 -118.095375 101 90 66
101.180801 28.394129 -135.809677 114 83 70
106.307976 29.888556 -142.957565 139 98 85
106.109848 29.888556 -142.957565 147 102 87
108.774193 30.696356 -146.821274 159 101 80
118.150482 33.404858 -159.776093 178 96 66
125.299606 35.492661 -169.762100 191 97 63
125.064331 35.492661 -169.762100 208 103 66
124.829048 35.492661 -169.762100 213 104 68
124.593773 35.492661 -169.762100 210 106 69
124.358490 35.492661 -169.762100 206 106 70
124.123215 35.492661 -169.762100 210 104 67
123.887939 35.492661 -169.762100 213 103 66
123.652657 35.492661 -169.762100 211 100 66
123.417381 35.492661 -169.762100 208 96 64
123.182098 35.492661 -169.762100 203 95 63
126.912849 36.637585 -175.238297 193 93 63
126.669983 36.637585 -175.238297 193 96 66
126.427116 36.637585 -175.238297 196 98 67
126.184250 36.637585 -175.238297 196 96 65
125.941376 36.637585 -175.238297 200 97 66
125.698509 36.637585 -175.238297 205 102 68
125.455643 36.637585 -175.238297 210 107 70
129.386536 37.858837 -181.079575 220 109 71
129.135574 37.858837 -181.079575 222 110 72
133.328903 39.164314 -187.323700 199 107 75
137.821762 40.563042 -194.013840 124 91 80
132.809662 39.164314 -187.323700 103 91 85
132.550049 39.164314 -187.323700 121 105 94
132.290421 39.164314 -187.323700 121 106 95
132.030807 39.164314 -187.323700 113 99 90
131.771194 39.164314 -187.323700 107 94 84
141.253174 42.065376 -201.199524 120 107 98
146.396408 43.683273 -208.937973 134 125 110
165.164261 49.381092 -236.190750 125 110 95
172.329498 51.625687 -246.926697 114 101 89
189.186005 56.788258 -271.619354 104 92 83
188.809555 56.788258 -271.619354 93 84 77
198.350647 59.777111 -285.915131 73 71 65
197.954391 59.777111 -285.915131 61 63 54
197.558136 59.777111 -285.915131 62 64 49
208.115311 63.098064 -301.799286 94 98 86
233.659164 70.985321 -339.524200 189 200 200
233.188614 70.985321 -339.524200 234 246 245
248.232590 75.717674 -362.159149 231 243 240
265.425720 81.126083 -388.027679 243 250 248
285.263916 87.366547 -417.875946 249 255 255
370.090210 113.576515 -543.238708 249 255 255
615.562195 189.294189 -905.397888 250 255 255
921.461060 283.941284 -1358.096802 251 255 255
735.663086 227.153030 -1086.477417 250 255 255
524.398071 162.252167 -776.055359 249 255 255
523.322510 162.252167 -776.055359 248 255 255
522.246948 162.252167 -776.055359 245 253 253
729.639954 227.153030 -1086.477417 234 246 245
910.167725 283.941284 -1358.096802 220 233 233
908.285522 283.941284 -1358.096802 225 237 232
1208.537720 378.588379 -1810.795776 238 247 246
904.521057 283.941284 -1358.096802 245 254 254
902.638855 283.941284 -1358.096802 246 255 255
720.605286 227.153030 -1086.477417 247 255 255
599.249573 189.294189 -905.397888 247 255 255
512.566956 162.252167 -776.055359 245 255 255
397.826630 126.196129 -603.598572 247 255 255
357.291077 113.576515 -543.238708 247 255 255
324.125641 103.251373 -493.853394 246 255 255
323.441193 103.251373 -493.853394 246 255 255
322.756744 103.251373 -493.853394 245 255 255
322.072296 103.251373 -493.853394 244 255 255
294.605530 94.647095 -452.698944 242 255 255
271.364410 87.366547 -417.875946 240 255 255
251.443466 81.126083 -388.027679 240 255 255
219.542480 70.985321 -339.524200 237 254 254
219.071915 70.985321 -339.524200 227 245 245
205.742462 66.809715 -319.552185 199 213 205
205.299576 66.809715 -319.552185 172 183 164
193.475769 63.098064 -301.799286 157 159 124
193.057510 63.098064 -301.799286 141 141 109
192.639236 63.098064 -301.799286 121 132 109
192.220963 63.098064 -301.799286 132 140 117
203.085205 66.809715 -319.552185 126 126 101
202.642319 66.809715 -319.552185 123 122 93
214.836914 70.985321 -339.524200 111 107 73
201.756561 66.809715 -319.552185 115 100 65
201.313690 66.809715 -319.552185 142 113 72
200.870819 66.809715 -319.552185 108 91 58
189.293045 63.098064 -301.799286 71 66 39
199.985062 66.809715 -319.552185 88 79 47
199.542191 66.809715 -319.552185 104 94 56
199.099304 66.809715 -319.552185 83 78 46
198.656433 66.809715 -319.552185 61 56 33
198.213562 66.809715 -319.552185 53 47 29
186.783417 63.098064 -301.799286 56 50 28
186.365143 63.098064 -301.799286 53 51 27
185.946869 63.098064 -301.799286 60 59 30
175.763931 59.777111 -285.915131 47 44 26
175.367676 59.777111 -285.915131 37 36 23
166.222855 56.788258 -271.619354 38 36 22
165.846405 56.788258 -271.619354 32 29 19
165.469955 56.788258 -271.619354 33 31 21
150.085007 51.625687 -246.926697 34 33 23
137.264221 47.323547 -226.349472 31 32 19
126.415863 43.683273 -208.937973 27 29 18
117.117271 40.563042 -194.013840 31 31 18
109.058487 37.858837 -181.079575 31 31 19
102.007057 35.492661 -169.762100 34 31 20
88.018837 30.696356 -146.821274 36 33 21
72.203735 25.239225 -120.719719 43 36 24
66.155899 23.178881 -110.865051 34 27 19
59.890930 21.032688 -100.599762 22 21 15
52.041634 18.318792 -87.619148 23 23 15
38.322052 13.521013 -64.671280 31 28 18
34.165142 12.082608 -57.791355 45 40 22
33.030872 11.708919 -56.003994 51 39 21
31.337898 11.134953 -53.258701 52 35 19
29.803146 10.614628 -50.769974 56 35 18
29.187227 10.419864 -49.838417 30 24 16
28.087425 10.051019 -48.074223 19 17 13
27.533478 9.876219 -47.238152 19 16 13
26.998472 9.707395 -46.430660 19 15 12
26.705866 9.625128 -46.037182 23 17 12
26.642063 9.625128 -46.037182 24 21 15
26.354912 9.544245 -45.650314 22 20 15
25.436630 9.233863 -44.165752 24 21 16
24.771244 9.014009 -43.114185 22 21 18
24.136805 8.804380 -42.111530 40 41 37
23.710831 8.669963 -41.468605 57 54 51
23.297668 8.539587 -40.845016 31 28 27
23.067619 8.475860 -40.540203 23 21 19
22.840979 8.413075 -40.239906 22 20 20
21.815626 8.055072 -38.527569 20 18 17
21.161892 7.832863 -37.464741 18 17 16
20.682064 7.674089 -36.705318 17 16 15
20.492729 7.622585 -36.458977 17 17 16
20.442198 7.622585 -36.458977 31 33 30
20.255724 7.571767 -36.215916 100 102 89
20.071720 7.521624 -35.976074 203 202 193
19.760136 7.423302 -35.505798 234 230 224
19.582935 7.375098 -35.275242 238 233 226
19.408020 7.327517 -35.047661 235 233 226
19.359446 7.327517 -35.047661 215 208 192
19.064875 7.234173 -34.601192 196 189 162
18.777714 7.143177 -34.165958 161 154 135
18.159313 6.925397 -33.124313 85 84 75
17.371922 6.641901 -31.768347 64 69 61
16.835623 6.453211 -30.865837 66 72 67
16.419670 6.309806 -30.179930 68 71 68
15.849526 6.106264 -29.206383 50 50 49
15.724508 6.073610 -29.050200 37 34 32
15.600820 6.041304 -28.895678 30 28 27
15.478440 6.009339 -28.742790 28 26 25
15.438604 6.009339 -28.742790 26 25 24
15.398769 6.009339 -28.742790 25 24 24
15.358933 6.009339 -28.742790 25 26 26
15.158689 5.946414 -28.441818 26 27 28
15.119270 5.946414 -28.441818 26 26 26
15.079852 5.946414 -28.441818 28 29 28
15.199592 6.009339 -28.742790 28 28 28
15.159757 6.009339 -28.742790 22 21 22
15.119921 6.009339 -28.742790 19 19 20
15.000716 5.977711 -28.591513 20 20 21
14.882760 5.946414 -28.441818 25 26 25
14.766033 5.915443 -28.293684 30 31 30
14.650516 5.884793 -28.147085 33 34 33
14.536188 5.854459 -28.001997 31 31 31
14.423034 5.824437 -27.858397 28 28 28
14.238389 5.765305 -27.575571 28 30 29
13.848682 5.622600 -26.893007 31 32 32
13.609292 5.540318 -26.499451 30 30 31
13.441430 5.486788 -26.243418 27 27 28
13.276780 5.434283 -25.992285 30 32 32
13.177706 5.408405 -25.868511 34 35 35
13.079570 5.382773 -25.745913 33 34 35
12.921411 5.332231 -25.504166 32 34 34
12.825849 5.307314 -25.384987 30 31 32
12.498642 5.186142 -24.805422 27 28 28
12.407608 5.162569 -24.692669 25 26 26
12.206927 5.093117 -24.360481 23 24 24
12.118821 5.070380 -24.251730 25 26 25
12.031498 5.047845 -24.143944 28 29 29
11.892326 5.003371 -23.931221 28 29 30
11.755586 4.959673 -23.722216 24 25 26
11.671741 4.938109 -23.619076 24 25 26
11.391368 4.833043 -23.116543 26 27 27
11.263471 4.792258 -22.921465 27 28 28
11.184511 4.772122 -22.825157 28 29 28
11.059937 4.732355 -22.634947 31 33 32
10.982804 4.712718 -22.541027 32 34 34
10.861427 4.673931 -22.355503 28 28 30
10.786057 4.654775 -22.263882 24 24 24
10.624571 4.598239 -21.993471 29 30 28
10.302127 4.471516 -21.387352 35 36 35
10.232201 4.453981 -21.303480 32 32 33
10.162822 4.436583 -21.220263 27 28 28
10.093983 4.419320 -21.137693 24 24 24
9.986967 4.385193 -20.974468 23 24 24
9.919599 4.368328 -20.893797 24 25 25
9.815140 4.334981 -20.734303 23 24 25
9.639240 4.269794 -20.422508 23 24 25
9.539212 4.237930 -20.270102 25 27 27
9.440667 4.206538 -20.119953 27 29 28
9.343571 4.175607 -19.972012 26 28 27
9.214263 4.130055 -19.754135 28 31 30
9.120553 4.100235 -19.611507 34 38 36
8.932143 4.027536 -19.263784 40 43 42
8.873977 4.013304 -19.195715 37 38 40
8.847373 4.013304 -19.195715 32 34 36
8.758869 3.985141 -19.061008 31 33 34
8.732452 3.985141 -19.061008 30 31 32
8.675594 3.971207 -18.994362 27 28 29
8.589205 3.943629 -18.862455 24 24 25
8.504007 3.916431 -18.732370 23 24 24
8.448912 3.902973 -18.667997 26 28 27
8.337090 3.863147 -18.477509 27 28 29
8.145251 3.785884 -18.107958 27 27 28
8.120155 3.785884 -18.107958 25 26 26
8.041449 3.760812 -17.988037 27 29 29
7.963778 3.736069 -17.869696 29 32 31
7.887124 3.711651 -17.752899 29 31 32
7.836908 3.699561 -17.695072 27 27 29
7.761819 3.675615 -17.580542 25 26 27
7.712494 3.663759 -17.523830 25 26 27
7.566172 3.605604 -17.245674 26 28 28
7.518403 3.594193 -17.191099 28 30 30
7.470935 3.582855 -17.136869 28 31 32
7.423766 3.571589 -17.082979 27 29 31
7.376892 3.560392 -17.029427 24 26 27
7.330311 3.549266 -16.976210 24 27 26
7.194372 3.494662 -16.715038 27 30 29
7.127345 3.473288 -16.612804 30 33 33
7.018468 3.431315 -16.412046 30 34 33
6.953706 3.410706 -16.313475 32 35 35
6.910345 3.400494 -16.264633 32 35 35
6.867242 3.390344 -16.216082 31 32 32
6.824397 3.380253 -16.167820 31 32 32
6.761741 3.360252 -16.072151 29 31 32
6.739466 3.360252 -16.072151 26 27 29
6.717191 3.360252 -16.072151 29 32 32
19.890032 5.151763 -24.805422 32 31 30
19.765400 5.128346 -24.692669 33 33 31
19.378836 5.036769 -24.251730 35 34 33
19.345224 5.036769 -24.251730 38 37 36
19.311613 5.036769 -24.251730 40 40 39
19.278002 5.036769 -24.251730 42 42 41
19.865177 5.199245 -25.034042 43 43 42
20.108479 5.272132 -25.384987 45 44 43
20.167538 5.296884 -25.504166 46 45 43
20.132191 5.296884 -25.504166 45 45 43
133.769623 35.257381 -169.762100 45 44 43
133.534348 35.257381 -169.762100 44 42 42
129.259705 34.188976 -164.617798 42 41 40
125.236504 33.183418 -159.776093 40 40 39
20.435156 5.424212 -26.117247 37 37 36
20.398958 5.424212 -26.117247 35 34 34
20.362762 5.424212 -26.117247 34 32 33
124.350754 33.183418 -159.776093 34 30 30
124.129311 33.183418 -159.776093 33 29 28
120.367653 32.235321 -155.211060 33 28 27
120.152542 32.235321 -155.211060 32 26 25
119.937431 32.235321 -155.211060 30 24 23
119.722313 32.235321 -155.211060 27 23 22
119.507202 32.235321 -155.211060 27 24 23
119.292091 32.235321 -155.211060 28 25 26
115.769287 31.339895 -150.899643 30 27 26
115.560150 31.339895 -150.899643 34 29 28
115.351013 31.339895 -150.899643 39 33 32
118.431648 32.235321 -155.211060 43 38 36
118.216537 32.235321 -155.211060 48 44 40
114.723610 31.339895 -150.899643 52 47 43
111.419487 30.492870 -146.821274 56 52 44
105.512619 28.929134 -139.291977 59 54 41
85.572151 23.504921 -113.174736 57 52 34
73.213112 20.147076 -97.006920 48 43 28
66.006538 18.197359 -87.619148 58 49 39
63.826195 17.628691 -84.881050 95 82 72
63.708553 17.628691 -84.881050 106 101 80
63.590916 17.628691 -84.881050 114 102 85
64.480789 17.908512 -86.228371 154 140 124
69.909668 19.452349 -93.661850 116 114 89
77.831383 21.696850 -104.468987 94 87 75
91.811432 25.641733 -123.463348 94 91 85
106.109848 29.690428 -142.957565 96 93 88
118.371918 33.183418 -159.776093 104 92 82
125.534882 35.257381 -169.762100 121 83 61
125.299606 35.257381 -169.762100 162 85 56
129.098663 36.394718 -175.238297 205 101 65
124.829048 35.257381 -169.762100 213 104 67
124.593773 35.257381 -169.762100 215 105 68
120.590057 34.188976 -164.617798 213 107 69
120.361908 34.188976 -164.617798 217 107 69
120.133759 34.188976 -164.617798 215 105 68
123.652657 35.257381 -169.762100 209 102 67
123.417381 35.257381 -169.762100 205 99 65
123.182098 35.257381 -169.762100 204 99 66
126.912849 36.394718 -175.238297 177 95 67
126.669983 36.394718 -175.238297 131 89 74
126.427116 36.394718 -175.238297 125 90 79
126.184250 36.394718 -175.238297 136 92 78
125.941376 36.394718 -175.238297 168 94 72
125.698509 36.394718 -175.238297 196 97 66
125.455643 36.394718 -175.238297 198 99 66
125.212776 36.394718 -175.238297 206 104 69
129.135574 37.607876 -181.079575 212 106 69
128.884613 37.607876 -181.079575 187 102 73
133.069290 38.904697 -187.323700 117 90 79
128.382675 37.607876 -181.079575 108 94 87
128.131714 37.607876 -181.079575 118 104 95
127.880745 37.607876 -181.079575 116 103 92
127.629784 37.607876 -181.079575 109 96 86
127.378822 37.607876 -181.079575 109 96 86
131.511581 38.904697 -187.323700 110 100 91
135.939529 40.294151 -194.013840 103 98 85
146.106842 43.393700 -208.937973 100 91 80
164.836914 49.053749 -236.190750 102 93 84
171.987274 51.283466 -246.926697 96 87 81
179.818634 53.725536 -258.685120 92 84 78
188.433121 56.411812 -271.619354 86 80 75
188.056671 56.411812 -271.619354 79 78 73
197.558136 59.380856 -285.915131 73 75 68
197.161865 59.380856 -285.915131 80 79 68
207.697037 62.679790 -301.799286 151 156 147
233.188614 70.514763 -339.524200 183 198 185
232.718048 70.514763 -339.524200 169 176 158
265.425720 80.588303 -388.027679 208 210 199
309.035919 94.019684 -452.698944 243 249 244
616.817017 188.039368 -905.397888 248 253 250
923.343323 282.059052 -1358.096802 249 254 252
1228.614746 376.078735 -1810.795776 249 254 254
919.578857 282.059052 -1358.096802 247 255 255
734.157288 225.647247 -1086.477417 241 250 251
523.322510 161.176605 -776.055359 232 240 240
522.246948 161.176605 -776.055359 207 217 214
729.639954 225.647247 -1086.477417 170 181 171
910.167725 282.059052 -1358.096802 140 148 142
